0.033310 -0.050540 -0.018740 -0.006925 -1.000000 0.000000 1.000000
0.037690 -0.053750 0.155570 -0.007627 -0.997900 0.064220 1.000000
0.020320 -0.063640 -0.026980 -0.025230 -0.801500 -0.597500 0.000000
0.276900 0.003140 -0.012110 0.050970 0.894900 -0.443300 0.000000
-0.021470 -0.053070 -0.131880 -0.220500 -0.388000 0.894900 1.000000
-0.021160 -0.053930 -0.114730 -0.122400 -0.991400 -0.046960 1.000000
-0.076020 -0.034190 0.059470 0.034640 -0.938400 0.343700 3.000000
-0.123540 -0.001370 0.004510 -0.016380 0.732500 0.680500 2.000000
-0.285510 0.096260 -0.008420 0.790700 0.106700 -0.602900 2.000000
0.166060 -0.071180 -0.016730 -0.005853 -0.908100 -0.418700 0.000000
0.034190 -0.054030 0.151340 -0.009027 -0.997900 0.063450 1.000000
0.048320 -0.058880 0.076830 -0.012490 -0.997800 0.064950 1.000000
0.031850 -0.054900 0.137000 -0.013050 -0.998000 0.062370 1.000000
0.027840 -0.053710 0.155260 -0.011660 -0.998000 0.062900 1.000000
0.027210 -0.053350 0.160910 -0.008920 -0.997900 0.064850 1.000000
0.042730 -0.056370 0.115740 -0.002504 -0.997900 0.065470 1.000000
-0.359240 0.099430 -0.107590 -0.043080 -0.998900 -0.019870 2.000000
0.185960 -0.071170 0.017080 -0.005642 -0.820800 0.571100 0.000000
0.223410 -0.071260 0.017490 -0.005298 -0.818200 0.574900 0.000000
0.168920 -0.071430 0.016170 -0.008478 -0.870800 0.491500 0.000000
0.222670 -0.073390 0.012330 -0.007263 -0.923900 0.382600 0.000000
0.352460 -0.053040 -0.016800 0.427200 -0.065390 -0.901800 0.000000
-0.074850 -0.014920 0.024500 0.003099 0.257400 0.966300 3.000000
-0.272240 -0.024470 -0.005480 -0.260500 -0.733300 -0.628100 0.000000
-0.269480 0.010820 0.003310 -0.070470 0.020590 0.997300 2.000000
0.135590 -0.022670 -0.032720 0.001940 0.276500 -0.961000 0.000000
-0.295470 0.096050 -0.026280 0.802900 0.344000 -0.486800 2.000000
0.040500 -0.076240 0.002570 -0.070940 0.157500 0.985000 0.000000
-0.019440 -0.055900 0.077990 -0.505700 -0.846500 0.166600 1.000000
-0.015790 -0.055740 0.089490 -0.075390 -0.995800 0.051560 1.000000
0.275530 -0.097130 -0.003260 0.893800 0.373800 -0.247600 3.000000
-0.366070 0.097210 0.096840 -0.095540 -0.995400 -0.007518 2.000000
-0.347260 0.095850 -0.027540 -0.063250 -0.998000 -0.001755 2.000000
-0.255130 0.033140 -0.003240 -0.016980 0.011040 -0.999800 2.000000
0.353840 -0.038600 0.009600 0.529700 0.595800 0.603700 0.000000
0.039430 -0.072210 0.007320 -1.000000 0.006760 0.000640 0.000000
-0.103870 -0.010020 0.040040 -0.013720 0.417000 -0.908800 3.000000
0.034150 -0.103430 -0.051820 0.568100 -0.808300 0.154700 3.000000
-0.101030 -0.014320 0.069820 -0.027750 0.227200 0.973500 3.000000
-0.120320 -0.003260 -0.049860 -0.116300 0.929300 0.350500 3.000000
0.235010 -0.075480 -0.003600 -0.006875 -0.990000 -0.140900 0.000000
0.219190 -0.075240 -0.004570 -0.006951 -0.995500 -0.094880 0.000000
0.036250 -0.057090 -0.102960 -0.012530 -0.998000 -0.062500 1.000000
0.036390 -0.055950 -0.121160 -0.012520 -0.998000 -0.062570 1.000000
0.039070 -0.054940 -0.137920 0.006355 -0.997700 -0.068030 1.000000
0.031570 -0.055430 -0.128550 -0.012490 -0.997900 -0.063160 1.000000
-0.066230 -0.016010 0.037290 0.130600 0.559900 -0.818200 3.000000
0.061240 -0.049740 -0.134020 0.688800 0.683400 -0.241800 1.000000
-0.021470 -0.050490 0.183250 -0.067170 -0.996400 0.052160 1.000000
-0.147810 -0.031450 -0.029900 -0.118600 -0.036250 -0.992300 0.000000
-0.129750 -0.017510 -0.068750 -0.093170 0.321800 -0.942200 3.000000
0.287360 -0.010390 0.024550 0.215600 0.536900 0.815600 0.000000
0.023840 -0.068340 0.024080 -0.175100 -0.556300 0.812400 0.000000
-0.345880 0.098900 -0.040050 0.107300 0.994200 0.002532 2.000000
-0.024420 -0.051570 -0.156190 -0.159400 -0.986400 -0.041220 1.000000
-0.107840 -0.034540 -0.049760 -0.001037 -0.975600 0.219700 3.000000
-0.084410 -0.019840 -0.037430 -0.022100 -0.787000 -0.616600 3.000000
-0.198840 0.035230 -0.000310 0.448900 0.554100 0.701000 2.000000
-0.000570 -0.049010 0.078140 -0.113200 0.993600 0.002458 1.000000
-0.039550 -0.053820 -0.138330 -0.084740 -0.093280 -0.992000 3.000000
0.032030 -0.011130 0.028250 0.045020 0.486100 0.872700 0.000000
-0.022760 -0.054200 -0.103730 -0.623000 0.777700 0.083520 1.000000
-0.150760 -0.009410 -0.024520 -0.052730 0.469600 -0.881300 0.000000
-0.102210 -0.012970 -0.029320 -0.043030 0.628500 -0.776600 0.000000
-0.141510 -0.022660 -0.066150 -0.268300 -0.269800 -0.924800 3.000000
-0.186250 -0.049520 0.005830 -0.247000 -0.957800 0.146700 0.000000
0.119460 -0.062830 -0.026830 -0.004360 -0.639200 -0.769100 0.000000
-0.039380 -0.044170 0.279010 -0.712400 0.694200 -0.103000 1.000000
0.046140 -0.046420 -0.166520 0.349100 0.932900 -0.087900 1.000000
-0.131980 -0.015740 0.025260 -0.066880 0.600000 0.797200 3.000000
0.222100 -0.063600 -0.026790 -0.004083 -0.609400 -0.792800 0.000000
0.257020 -0.080830 0.007120 -0.180500 -0.611800 0.770100 0.000000
0.060290 -0.073040 -0.022150 -0.051210 -0.921300 -0.385400 0.000000
0.089690 -0.071040 0.023960 0.152100 -0.892500 0.424500 0.000000
-0.116570 -0.018720 0.038410 -0.046530 -0.703400 -0.709300 3.000000
0.035580 -0.046270 0.201200 0.547300 0.813400 0.197300 1.000000
0.100960 0.004710 -0.013200 0.005914 0.855500 -0.517800 0.000000
0.073970 0.005400 -0.012360 0.005905 0.728900 -0.684600 0.000000
-0.064910 0.007540 -0.010400 -0.023420 0.916100 -0.400400 0.000000
0.145940 0.005610 -0.011170 0.005494 0.947400 -0.320100 0.000000
-0.072780 0.005850 -0.013320 0.006000 0.859200 -0.511600 0.000000
-0.060780 0.006340 -0.012350 0.033800 0.939100 -0.342100 0.000000
-0.048910 -0.031000 -0.035110 0.001028 0.138700 -0.990300 0.000000
0.189000 -0.038330 -0.035860 0.000311 0.026630 -0.999600 0.000000
-0.002020 -0.031560 -0.035140 0.001049 0.144100 -0.989600 0.000000
0.051400 -0.033500 -0.035350 0.000832 0.123300 -0.992400 0.000000
-0.045360 -0.036220 -0.035800 0.000304 0.042160 -0.999100 0.000000
-0.007160 -0.032490 -0.035270 -0.000297 -0.033360 -0.999400 0.000000
-0.200730 0.008220 -0.005400 -0.013430 0.098850 -0.995000 2.000000
0.029010 -0.050510 0.022070 -0.003463 -1.000000 -0.007826 1.000000
0.169160 -0.016300 0.030490 0.002822 0.377600 0.925900 0.000000
-0.063880 -0.016670 -0.040400 0.423700 0.500700 0.754900 0.000000
-0.072900 -0.056790 0.030430 -0.058180 -0.495200 0.866800 0.000000
0.056080 -0.046230 -0.090040 0.070300 0.997200 0.027150 1.000000
0.038010 -0.044390 -0.149650 0.038870 0.999100 0.019140 1.000000
-0.211450 0.001240 0.013410 -0.043580 0.751400 0.658400 2.000000
0.182680 -0.019740 -0.031780 0.002011 0.285100 -0.958500 0.000000
0.018890 0.002620 0.017660 0.005070 0.742500 0.669800 0.000000
0.072250 0.004820 0.013350 0.005853 0.948900 0.315700 0.000000
-0.084500 0.006470 0.012420 0.006001 0.858700 0.512400 0.000000
-0.035850 0.006000 0.012640 0.005246 0.860000 0.510300 0.000000
0.078330 0.003150 0.016080 0.005126 0.753700 0.657200 0.000000
-0.061650 0.004600 0.015280 0.006007 0.858800 0.512300 0.000000
0.248620 0.000870 0.017900 0.046460 0.772300 0.633600 0.000000
0.223120 -0.022130 0.032390 -0.011820 0.253300 0.967300 0.000000
0.000600 -0.049180 0.204790 0.058030 -0.749200 0.659800 1.000000
0.223050 -0.069430 -0.020110 -0.005641 -0.817000 -0.576600 0.000000
0.030260 -0.060390 0.061140 -0.024260 -0.992800 0.117200 1.000000
0.006500 -0.012110 -0.028870 0.003144 0.470500 -0.882400 0.000000
-0.268160 -0.021760 0.008530 -0.263200 -0.382200 0.885800 0.000000
-0.020140 -0.058910 -0.053660 -0.108600 -0.985400 -0.131000 1.000000
0.015670 -0.095200 -0.041460 -0.975500 -0.171300 0.138000 3.000000
0.231760 -0.065120 -0.025670 -0.005408 -0.792600 -0.609700 0.000000
-0.077060 -0.027250 0.068200 0.086020 -0.438900 0.894400 3.000000
0.030860 -0.063040 0.028790 -0.469200 0.844900 -0.256900 0.000000
-0.196280 0.005750 -0.005540 -0.017770 0.735600 -0.677100 2.000000
-0.330640 0.099460 0.074570 -0.047970 0.998500 0.027030 2.000000
-0.229110 -0.028450 0.015490 -0.124500 -0.511300 0.850400 0.000000
0.320500 -0.071840 0.012890 0.091150 -0.807200 0.583100 0.000000
-0.075790 -0.007330 0.026630 0.044950 0.441100 0.896300 0.000000
-0.045620 -0.009840 0.027850 -0.025230 0.267900 0.963100 0.000000
-0.093810 -0.015780 -0.042660 -0.006844 0.889800 0.456400 3.000000
0.167080 -0.025050 0.033340 0.001940 0.276500 0.961000 0.000000
-0.153530 -0.024250 0.058390 -0.646900 0.688900 -0.327200 3.000000
0.093700 -0.073330 0.020330 0.152100 -0.892500 0.424500 0.000000
-0.193480 -0.000370 -0.016330 -0.078000 0.531500 -0.843400 0.000000
-0.326270 0.092430 0.004700 -0.046510 -0.879100 0.474400 2.000000
-0.144210 -0.003710 0.021870 -0.035720 0.801300 0.597200 0.000000
0.022860 -0.056650 0.050750 0.283500 -0.272400 -0.919500 1.000000
0.060130 -0.054310 0.130500 0.143300 -0.982900 0.115600 1.000000
-0.325970 0.095210 -0.044570 -0.015380 -0.999800 -0.015640 2.000000
-0.326740 0.095300 -0.049350 -0.010090 -0.999800 -0.017500 2.000000
-0.196260 -0.008810 0.020440 -0.115600 0.494500 0.861400 0.000000
0.074330 -0.015730 0.030540 0.002198 0.354800 0.934900 0.000000
-0.185090 -0.002380 0.018410 -0.091740 0.346400 0.933600 0.000000
-0.209250 0.034260 -0.002840 0.040880 0.092110 -0.994900 2.000000
-0.137100 0.014030 0.003520 0.170200 0.791600 0.586900 0.000000
0.100440 -0.021400 -0.032420 0.001926 0.277300 -0.960800 0.000000
0.316920 -0.064960 -0.022020 0.126600 -0.602500 -0.788000 0.000000
0.013420 -0.047770 0.079630 -0.033390 0.996000 -0.083080 1.000000
-0.010830 -0.051150 0.050510 0.066610 0.997200 -0.033320 1.000000
-0.144690 -0.013280 0.042970 -0.287000 0.574600 -0.766500 3.000000
-0.218310 0.016910 0.004720 -0.029700 0.202300 0.978900 2.000000
-0.358280 0.096630 -0.073140 -0.136900 -0.990500 0.013600 2.000000
-0.024920 -0.055930 -0.203980 0.007731 -0.542000 -0.840300 1.000000
-0.181440 -0.051460 0.000530 -0.248200 -0.968300 0.029620 0.000000
0.003850 -0.047470 0.100750 -0.219200 0.974700 0.043830 1.000000
-0.011530 -0.046330 0.293760 -0.013390 -0.998000 0.061590 1.000000
-0.088650 -0.005630 -0.064100 0.029250 0.821500 -0.569400 3.000000
-0.153480 -0.016830 0.054620 -1.000000 0.008526 0.001289 3.000000
-0.042100 -0.044480 -0.298040 -0.332300 -0.941500 -0.055340 1.000000
-0.056850 -0.069910 0.016030 -0.006462 -0.923800 0.382800 0.000000
0.276110 -0.095630 0.001690 0.968300 0.249900 0.006278 3.000000
0.025280 -0.085370 -0.041460 -0.228000 0.949000 0.217800 3.000000
-0.225300 0.042270 0.003140 0.099750 0.128400 0.986700 2.000000
-0.132200 -0.031530 0.031750 -0.112100 0.136700 0.984300 0.000000
-0.338630 0.099000 0.027670 -0.076580 0.995600 -0.054590 2.000000
-0.249550 0.077480 0.002120 0.047030 0.205400 0.977500 2.000000
-0.009400 -0.052430 0.160350 -0.056590 -0.996900 0.054430 1.000000
-0.028570 0.007970 0.009060 0.005476 0.899200 0.437500 0.000000
-0.019500 0.008660 0.005090 0.003461 0.983200 0.182500 0.000000
0.075090 0.007280 0.008930 0.006068 0.827100 0.562000 0.000000
0.112020 0.007290 0.007470 0.006124 0.964400 0.264200 0.000000
0.049740 0.008450 0.003680 0.057690 0.986200 0.155300 0.000000
0.118600 0.006960 0.008990 0.005968 0.965000 0.262000 0.000000
0.032400 -0.103700 0.044580 0.667900 -0.724100 0.172200 3.000000
-0.142550 -0.033120 0.030380 -0.174900 -0.083590 0.981000 0.000000
-0.170270 -0.029140 0.027190 -0.126500 -0.168100 0.977600 0.000000
-0.190580 0.009290 0.000810 -0.009502 0.291600 0.956500 2.000000
-0.025380 -0.044290 -0.224120 -0.357000 0.932000 0.063290 1.000000
0.025170 -0.074150 0.006900 -0.059830 -0.998200 0.000000 0.000000
0.013700 -0.050660 -0.201020 -0.012450 -0.998000 -0.061770 1.000000
0.015680 -0.052240 -0.176270 -0.023790 -0.997900 -0.059730 1.000000
0.269870 -0.093280 -0.005660 0.000701 0.733200 -0.680000 3.000000
-0.358270 0.099040 -0.083010 -0.051310 -0.998700 -0.005561 2.000000
-0.137390 0.008500 0.004950 -0.008856 0.853400 0.521200 0.000000
-0.105420 -0.061170 -0.024520 -0.221800 -0.759400 -0.611600 0.000000
0.036970 -0.032610 -0.035250 0.000816 0.121500 -0.992600 0.000000
0.125850 -0.014130 0.029500 0.003209 0.436100 0.899900 0.000000
0.011590 -0.049760 0.221500 0.020000 -0.998400 0.052580 1.000000
0.014750 -0.050420 0.206630 -0.007214 -0.999000 0.044260 1.000000
0.016840 -0.050310 0.209850 -0.002103 -0.999000 0.044940 1.000000
-0.137280 -0.026620 0.042600 -0.127500 -0.749700 -0.649400 3.000000
-0.335500 0.099510 -0.085200 0.035890 0.999300 -0.011710 2.000000
-0.308330 0.099130 -0.031070 0.087860 0.995500 -0.034610 2.000000
0.090700 -0.049900 0.037530 0.226100 0.921700 0.315200 1.000000
-0.046060 -0.047240 -0.204910 -0.122900 0.438800 -0.890100 1.000000
-0.147530 -0.014160 -0.026700 -0.086020 0.318400 -0.944000 0.000000
0.065920 -0.047090 0.062440 -0.033230 0.997400 -0.063950 1.000000
-0.022880 -0.043170 -0.243910 -0.076790 0.995800 0.049600 1.000000
0.085760 -0.052930 -0.070960 0.706800 0.648700 -0.282100 1.000000
-0.110600 -0.030910 -0.043190 -0.008035 -0.745400 0.666500 3.000000
-0.299670 0.098570 -0.024130 0.259300 0.956000 -0.137100 2.000000
-0.002110 -0.041800 -0.288540 0.208000 0.975200 -0.075980 1.000000
0.053940 -0.057580 0.098360 -0.001249 -0.997800 0.065950 1.000000
0.061150 -0.059000 0.076930 0.006849 -0.993800 0.110800 1.000000
-0.370490 0.098340 -0.105350 -0.328200 0.935700 -0.129200 2.000000
0.164010 -0.051230 -0.033770 -0.002538 -0.324300 -0.946000 0.000000
-0.307870 0.064070 -0.002030 -0.053380 -0.028710 -0.998200 2.000000
0.002940 -0.062500 0.035600 -0.038990 -0.992400 0.117000 1.000000
0.024670 -0.075310 -0.007870 -0.059070 -0.998300 -0.000006 0.000000
-0.172150 0.000430 -0.005890 -0.017090 0.860900 -0.508600 0.000000
-0.003220 -0.049180 0.230430 -0.018330 -0.998900 0.042710 1.000000
-0.004210 -0.049500 0.221240 -0.022170 -0.999000 0.039120 1.000000
0.019370 -0.092970 -0.045570 -0.783800 -0.028750 -0.620300 3.000000
-0.055730 -0.026390 -0.034170 0.002069 0.224900 -0.974400 0.000000
-0.342010 0.095890 -0.071100 -0.025520 -0.999600 -0.012070 2.000000
-0.329580 0.095060 -0.028190 -0.025730 -0.999600 -0.012110 2.000000
0.024410 -0.088620 0.055300 -0.084740 -0.103400 0.991000 3.000000
-0.225760 0.000230 0.013040 -0.034310 0.377300 0.925500 0.000000
-0.136430 -0.019460 -0.039850 -0.127700 -0.984700 0.118900 3.000000
-0.285330 0.034660 0.002460 -0.044130 -0.017820 0.998900 2.000000
0.358540 -0.045550 -0.012150 0.489100 0.284500 -0.824500 0.000000
0.031580 -0.051330 -0.189680 0.086060 -0.992000 -0.092310 1.000000
-0.059580 -0.029270 -0.061440 0.404000 -0.673500 -0.619100 3.000000
-0.012350 -0.047100 0.278270 -0.018510 -0.998900 0.042470 1.000000
-0.005770 -0.047180 0.278300 -0.014970 -0.999000 0.042180 1.000000
-0.015470 -0.067310 0.020710 -0.005922 -0.855500 0.517700 0.000000
-0.201710 -0.045550 -0.005470 -0.240500 -0.914800 -0.324500 0.000000
-0.143910 -0.048200 0.024740 -0.196100 -0.589500 0.783600 0.000000
-0.156970 -0.045910 0.023170 -0.197100 -0.608100 0.769000 0.000000
-0.022860 -0.062290 0.027060 -0.007856 -0.775500 0.631300 0.000000
-0.071390 -0.032800 0.060690 0.176600 -0.882300 0.436300 3.000000
0.066230 -0.060550 -0.064090 -0.009413 -0.992800 -0.119500 1.000000
0.322330 -0.038300 -0.026500 0.280100 0.228500 -0.932400 0.000000
-0.307710 0.099330 -0.011960 0.000016 0.984200 -0.177300 2.000000
-0.317190 0.099400 -0.036290 0.008145 1.000000 -0.000418 2.000000
-0.326570 0.099420 -0.045440 -0.015380 -0.999800 -0.015640 2.000000
0.273850 -0.070460 -0.006390 -0.112900 0.078310 0.990500 0.000000
0.024440 -0.102800 -0.037930 -0.059300 -0.158500 0.985600 3.000000
0.064880 -0.047940 0.110520 0.252700 0.965800 0.057240 1.000000
0.006020 -0.053660 -0.132150 0.106500 -0.602800 0.790700 1.000000
0.010390 -0.042620 -0.210770 -0.087890 0.996000 0.017240 1.000000
0.315790 -0.022450 -0.022600 0.319700 0.444300 -0.836900 0.000000
0.059970 -0.046520 0.083920 -0.075150 0.993400 0.086320 1.000000
0.057090 -0.046310 0.087930 0.019200 0.999000 -0.039250 1.000000
-0.114670 -0.004530 -0.045990 0.010880 0.935300 0.353600 3.000000
0.259380 -0.041540 -0.035840 -0.000297 -0.041500 -0.999100 0.000000
0.003550 -0.056180 0.103300 -0.039250 -0.997600 0.056610 1.000000
-0.277980 -0.000230 0.007290 -0.098260 0.069160 0.992800 2.000000
-0.000990 -0.054080 0.137170 0.079040 -0.848800 0.522700 1.000000
-0.158570 -0.020880 0.062530 0.027530 0.448800 -0.893200 3.000000
-0.338110 0.098210 -0.109730 0.254500 -0.743800 -0.618100 2.000000
-0.163450 -0.027110 -0.028170 -0.108200 0.018910 -0.993900 0.000000
0.330230 -0.032680 -0.021180 0.491200 0.480300 -0.726600 0.000000
-0.055810 0.008680 -0.006320 0.006860 0.982500 -0.186400 0.000000
0.086060 0.008000 -0.004690 -0.061230 0.995800 -0.067590 0.000000
-0.038680 0.008930 -0.004410 0.019900 0.967700 -0.251100 0.000000
-0.041160 0.008370 -0.007420 0.019900 0.967700 -0.251100 0.000000
0.127350 0.008050 -0.002940 -0.013010 0.982000 -0.188500 0.000000
0.004600 0.008420 -0.005460 0.006450 0.981400 -0.191800 0.000000
-0.094350 -0.030370 -0.042270 -0.010650 -0.751600 0.659500 3.000000
-0.023670 -0.053040 0.139230 -0.114600 -0.664300 0.738600 1.000000
0.017110 -0.063060 -0.035650 -0.035900 -0.992500 -0.116600 1.000000
0.277990 -0.050380 -0.034100 0.075160 -0.238900 -0.968100 0.000000
-0.352200 0.097000 0.013570 -0.165300 -0.985900 -0.026870 2.000000
0.160590 0.006930 -0.007590 0.005465 0.842600 -0.538400 0.000000
0.258900 0.006870 -0.004290 0.006861 0.983000 -0.183400 0.000000
0.261930 0.006320 -0.007110 0.006862 0.983000 -0.183300 0.000000
0.136350 0.007610 -0.004930 0.007193 0.996100 -0.088120 0.000000
-0.027580 -0.044550 0.224960 -0.085000 0.996400 -0.004462 1.000000
0.280230 -0.029250 0.033340 0.118300 0.261000 0.958100 0.000000
-0.131120 -0.015270 0.014070 -0.066880 0.600000 0.797200 3.000000
-0.134950 -0.062830 -0.005850 -0.249000 -0.960200 -0.126600 0.000000
-0.346730 0.096780 -0.110480 0.040800 -0.985100 -0.167100 2.000000
-0.137580 -0.015220 0.067610 -0.110300 0.123600 0.986200 3.000000
0.307130 -0.075120 0.005790 0.067630 -0.948100 0.310700 0.000000
-0.068820 -0.015480 -0.030470 0.003224 0.470100 -0.882600 0.000000
0.361050 -0.050570 0.012170 0.441100 0.018040 0.897300 0.000000
-0.221060 -0.041150 -0.001280 -0.244400 -0.964900 -0.095760 0.000000
0.332100 -0.025480 0.014780 0.445600 0.580200 0.681800 0.000000
-0.210290 0.012420 -0.005120 -0.016110 0.054750 -0.998400 2.000000
-0.061120 -0.012110 -0.066800 0.308800 0.086380 -0.947200 3.000000
0.261030 -0.016600 -0.030310 0.002736 0.399200 -0.916900 0.000000
0.068620 -0.047260 -0.074000 0.133500 0.989200 -0.060480 1.000000
0.057330 -0.058350 -0.086790 -0.011960 -0.998000 -0.062770 1.000000
0.045730 -0.055360 -0.131270 0.007609 -0.997500 -0.070530 1.000000
0.001120 -0.021340 -0.032610 0.001867 0.276100 -0.961100 0.000000
-0.032920 -0.047630 -0.234140 -0.125800 -0.991800 -0.023670 1.000000
0.031520 -0.045170 -0.208650 0.592500 0.760800 -0.264900 1.000000
0.031990 -0.048200 0.214490 0.536300 -0.832800 0.137200 1.000000
-0.166560 0.007330 -0.008690 -0.030890 0.846500 -0.531500 0.000000
-0.120920 -0.008250 0.025690 -0.052450 0.469700 0.881300 0.000000
-0.114490 -0.011330 0.027710 -0.023470 0.670500 0.741600 0.000000
0.070640 -0.062490 0.048500 0.011290 -0.991900 0.126200 0.000000
0.012400 -0.024320 0.033440 0.001919 0.186800 0.982400 0.000000
-0.032910 -0.066690 0.021360 -0.005561 -0.792900 0.609300 0.000000
0.021770 -0.029340 0.034830 0.001921 0.233600 0.972300 0.000000
-0.126530 -0.025390 0.040330 -0.119100 -0.619200 -0.776100 3.000000
-0.094940 -0.014950 0.027660 0.027020 0.964100 0.264100 3.000000
0.024690 -0.064750 0.001320 0.013560 0.013540 0.999800 0.000000
0.002990 -0.050030 0.037830 0.002059 0.201800 0.979400 1.000000
0.360300 -0.062990 0.007330 0.432000 -0.740700 0.514500 0.000000
0.270560 -0.034710 -0.035310 0.009504 0.232100 -0.972700 0.000000
0.036880 -0.074590 0.012450 -0.041440 -0.997000 0.065300 0.000000
0.060020 -0.062220 0.050030 -0.012420 -0.992800 0.118900 1.000000
0.058850 -0.064440 0.031390 -0.012450 -0.993100 0.116300 1.000000
0.061010 -0.063750 0.037310 -0.012340 -0.992800 0.119500 1.000000
0.015810 -0.067310 0.023650 0.002194 -0.703200 0.711000 0.000000
-0.028810 -0.069860 0.016610 -0.006285 -0.919900 0.392100 0.000000
-0.304540 0.106600 -0.000830 -0.004539 0.816900 -0.576800 2.000000
-0.005020 -0.070110 0.016830 -0.097480 -0.897800 0.429500 0.000000
-0.122210 -0.006410 0.044230 -0.067150 0.794100 -0.604000 3.000000
-0.144470 -0.018560 0.017030 -0.084380 0.237200 0.967800 3.000000
-0.274180 0.026580 -0.002910 -0.042810 0.017310 -0.998900 2.000000
-0.116260 -0.029990 -0.065660 -0.023250 -0.716400 -0.697300 3.000000
0.081690 -0.074440 -0.020210 0.048250 -0.921900 -0.384500 0.000000
-0.188820 0.006920 0.005570 -0.017820 0.644600 0.764300 0.000000
-0.289050 -0.018490 -0.005070 -0.177600 -0.483800 -0.857000 2.000000
0.246770 -0.053280 0.033160 -0.006412 -0.501600 0.865100 0.000000
0.012690 -0.057530 -0.085810 -0.039290 -0.997600 -0.056900 1.000000
-0.041630 -0.044480 0.290140 -0.665300 0.742200 -0.080730 1.000000
-0.104710 0.007360 -0.010740 -0.009297 0.942900 -0.333000 0.000000
-0.099620 0.006630 -0.012150 -0.055780 0.910600 -0.409600 0.000000
0.034690 -0.101750 0.054990 0.260000 -0.170300 0.950500 3.000000
0.039200 -0.060730 -0.060090 -0.016860 -0.992800 -0.118300 1.000000
-0.105300 -0.032220 -0.044820 -0.007771 -0.883200 0.468900 3.000000
-0.257470 0.000830 0.004090 -0.120900 0.346200 0.930300 2.000000
-0.115630 -0.013670 -0.038540 0.069820 0.654200 0.753100 3.000000
0.123470 -0.037630 0.035830 0.000247 0.004722 1.000000 0.000000
-0.027060 -0.038030 0.036020 0.000305 0.049210 0.998800 0.000000
-0.071640 -0.034710 0.035620 -0.038780 0.222600 0.974100 0.000000
0.046980 -0.038150 0.035970 -0.000684 -0.259700 0.965700 0.000000
-0.075000 -0.030630 0.035090 -0.038780 0.222600 0.974100 0.000000
0.089470 -0.036380 0.035690 0.000033 -0.005386 1.000000 0.000000
-0.167510 -0.023210 -0.027260 -0.083230 0.168300 -0.982200 0.000000
0.024250 -0.058210 -0.080160 -0.024390 -0.997900 -0.059540 1.000000
0.021370 -0.055040 -0.132120 -0.023680 -0.997900 -0.060670 1.000000
0.022030 -0.057120 -0.097530 -0.024660 -0.997900 -0.060180 1.000000
0.018460 -0.056300 -0.109920 -0.024400 -0.997900 -0.059560 1.000000
0.019200 -0.054120 -0.146640 -0.024380 -0.997900 -0.059550 1.000000
0.085120 -0.052910 0.072450 0.726900 -0.512400 0.457200 1.000000
0.081830 -0.049090 -0.058220 0.307900 0.946700 -0.094210 1.000000
-0.120290 0.009290 0.002570 0.009605 0.943900 0.330100 0.000000
-0.116070 -0.010110 0.067670 0.019780 0.632900 0.774000 3.000000
-0.207100 -0.000780 0.000750 -0.025080 0.763700 0.645100 2.000000
-0.135900 0.009520 -0.001660 0.085430 0.800500 -0.593200 0.000000
-0.022920 -0.042200 0.272860 -0.085380 0.995600 0.039740 1.000000
-0.029060 -0.044970 -0.306800 -0.038140 -0.991100 -0.127800 1.000000
0.181200 -0.019020 0.031570 0.002387 0.321900 0.946800 0.000000
0.252410 0.003410 -0.013610 0.005988 0.859000 -0.511900 0.000000
0.243380 0.004000 -0.012730 0.005986 0.859200 -0.511600 0.000000
0.260950 0.003910 -0.012670 0.005802 0.844400 -0.535700 0.000000
0.160870 0.004250 -0.013280 0.005943 0.946300 -0.323200 0.000000
-0.037760 0.003260 -0.017240 0.005515 0.793500 -0.608600 0.000000
0.270040 0.001530 -0.016550 0.013740 0.793600 -0.608300 0.000000
0.024510 0.002810 -0.017270 -0.036010 0.815100 -0.578200 0.000000
-0.246220 0.053120 0.003110 -0.000377 -0.027680 0.999600 2.000000
-0.143000 -0.006820 -0.058860 -0.297800 0.874900 -0.381900 3.000000
-0.147880 0.015900 -0.003820 0.195000 0.886500 -0.419600 0.000000
0.044710 -0.050550 0.179270 0.372800 -0.908200 0.190400 1.000000
-0.022070 -0.053590 -0.119790 -0.111900 -0.992600 -0.047080 1.000000
0.071620 -0.013050 -0.029120 0.003103 0.470200 -0.882600 0.000000
-0.022770 -0.050040 -0.190230 -0.087900 -0.994900 -0.050410 1.000000
0.094220 -0.062580 0.039020 0.106300 -0.980800 0.163700 0.000000
-0.153690 -0.017170 0.016350 -0.122600 0.192900 0.973500 3.000000
0.316440 -0.039460 0.028470 0.363000 0.076090 0.928700 0.000000
-0.243390 0.000750 -0.010940 -0.088870 0.429100 -0.898900 2.000000
-0.256460 0.014610 0.003890 0.132200 0.020220 0.991000 2.000000
0.076150 -0.025150 0.033550 0.002153 0.266500 0.963800 0.000000
0.223410 -0.011710 -0.027840 0.003485 0.470200 -0.882500 0.000000
0.143040 -0.012760 -0.028700 0.003284 0.470300 -0.882500 0.000000
0.210880 -0.010110 -0.027040 0.003511 0.470900 -0.882200 0.000000
0.354940 -0.046080 0.014560 0.475700 0.393800 0.786500 0.000000
-0.262160 0.076940 -0.002860 0.019130 0.029460 -0.999400 2.000000
-0.355150 0.099310 0.089470 -0.035220 0.999000 -0.026880 2.000000
0.020420 -0.066960 0.024180 0.024630 -0.663300 0.748000 0.000000
0.008820 -0.024740 0.033570 0.001919 0.186800 0.982400 0.000000
0.265050 -0.095090 0.003370 -0.520700 0.592300 0.614900 3.000000
-0.338820 0.095910 0.077110 -0.011930 -0.999800 0.016530 2.000000
-0.029870 -0.041750 -0.203070 -0.064420 0.825300 0.561000 1.000000
-0.090850 -0.019330 0.033900 -0.008732 -0.806000 -0.591900 3.000000
-0.345540 0.095750 0.038820 -0.047470 0.998700 -0.017530 2.000000
-0.020390 -0.043240 -0.236270 0.242900 0.969300 -0.036760 1.000000
-0.131200 -0.007490 -0.063680 -0.117100 0.846700 -0.519000 3.000000
-0.283400 0.092430 0.001980 0.218400 -0.597000 0.772000 2.000000
0.275080 0.005620 0.007370 0.207700 0.948100 0.240900 0.000000
-0.338990 0.099440 -0.101110 0.037650 0.999200 -0.012470 2.000000
0.010540 -0.049230 0.044550 -0.085520 0.995000 0.052060 1.000000
-0.321310 0.070340 -0.001490 0.061100 0.029900 0.997700 2.000000
0.123560 -0.068570 0.020330 -0.005596 -0.798800 0.601600 0.000000
-0.008190 -0.073650 0.004580 -0.006970 -0.991600 0.129200 0.000000
-0.003980 -0.073500 0.005940 -0.006940 -0.991400 0.130700 0.000000
-0.152790 -0.027460 0.054990 -0.176000 -0.961400 -0.211500 3.000000
-0.313160 0.073620 -0.002020 -0.053510 -0.024560 -0.998300 2.000000
-0.061580 -0.070790 0.013830 -0.006466 -0.923800 0.382800 0.000000
-0.044810 -0.070900 0.013840 -0.006464 -0.923800 0.382800 0.000000
0.008830 -0.048100 -0.255990 0.187300 0.981100 -0.047800 1.000000
-0.087390 -0.053800 0.031980 -0.004033 -0.282100 0.959400 0.000000
-0.083000 -0.051140 0.033100 0.041450 -0.487300 0.872200 0.000000
-0.026850 -0.046630 0.187740 -0.292700 0.953800 -0.067190 1.000000
-0.027910 -0.046170 0.198150 -0.443000 0.889800 -0.109500 1.000000
-0.338660 0.095330 0.021830 -0.049060 -0.998800 0.004987 2.000000
0.065810 -0.016230 0.030840 0.043370 0.433800 0.900000 0.000000
0.231790 -0.014100 0.029090 0.061980 0.598400 0.798800 0.000000
0.073320 -0.012450 0.028800 0.003330 0.470400 0.882500 0.000000
0.224270 -0.013250 0.028660 0.003350 0.655100 0.755600 0.000000
0.069150 -0.049590 0.108220 0.388700 0.915800 0.101200 1.000000
-0.131250 0.015050 -0.000570 0.208500 0.975800 -0.065830 0.000000
-0.125520 -0.005930 -0.045350 -0.036900 0.942100 0.333300 3.000000
-0.248060 0.045090 -0.003220 -0.005338 0.014340 -0.999900 2.000000
0.024800 -0.043010 -0.204640 0.155100 0.987900 0.002575 1.000000
0.039560 -0.054000 0.014310 -1.000000 0.006986 0.000705 0.000000
0.039580 -0.051460 0.011470 -0.731700 -0.681700 0.000351 0.000000
0.268730 -0.106770 -0.004020 0.000075 -0.995200 -0.098130 3.000000
-0.195430 -0.044960 -0.011160 -0.240500 -0.785700 -0.569900 0.000000
-0.262810 0.057320 -0.003000 -0.005385 0.004323 -1.000000 2.000000
-0.162150 -0.051780 -0.015440 -0.229000 -0.797000 -0.558900 0.000000
-0.100740 -0.006740 0.065230 -0.048590 0.701700 0.710900 3.000000
-0.367620 0.098920 -0.107400 -0.098070 -0.994900 -0.021390 2.000000
-0.162950 -0.001090 0.000380 -0.030890 0.846500 -0.531500 2.000000
-0.006790 -0.054210 0.200600 0.113100 -0.644800 -0.756000 1.000000
-0.114030 -0.031610 0.063720 -0.019100 -0.868700 0.495000 3.000000
0.029320 -0.046630 -0.220670 0.919600 -0.207900 -0.333300 1.000000
0.021670 -0.089890 0.051820 -0.602200 0.596400 -0.530700 3.000000
-0.019660 -0.053450 0.128160 -0.169500 -0.984000 0.054540 1.000000
-0.020780 -0.053850 0.117200 -0.116800 -0.992000 0.047270 1.000000
-0.154800 -0.014640 -0.046520 -0.239200 -0.183800 -0.953400 3.000000
-0.025530 -0.044860 0.211600 -0.167400 0.985400 0.029920 1.000000
-0.013830 -0.041670 -0.309330 0.064690 0.995300 -0.072640 1.000000
-0.317900 0.063620 -0.001450 -0.075290 -0.041970 -0.996300 2.000000
-0.013120 -0.056760 -0.075710 -0.072830 -0.991200 -0.110900 1.000000
-0.210210 0.007820 0.006130 -0.085880 0.662300 0.744300 2.000000
0.034310 -0.094170 0.045290 0.954600 0.187300 -0.231800 3.000000
-0.044670 -0.054520 -0.204420 -0.069660 -0.532500 -0.843500 1.000000
0.013040 -0.067520 0.010240 0.994100 0.071080 -0.082100 0.000000
-0.007420 -0.041640 -0.274500 0.121100 0.992600 -0.007970 1.000000
-0.075510 -0.022030 0.070170 0.133700 -0.269400 0.953700 3.000000
-0.244910 -0.000520 0.002970 -0.150400 0.567000 0.809900 2.000000
-0.239180 -0.026480 -0.013930 -0.225300 -0.480300 -0.847700 0.000000
0.014990 -0.061310 0.049760 -0.038200 -0.992500 0.116100 1.000000
-0.012260 -0.043730 0.203280 0.016540 0.928500 0.370900 1.000000
-0.017370 -0.043260 0.228660 -0.081520 0.996100 -0.034190 1.000000
0.180450 -0.074140 0.009820 -0.005117 -0.984300 0.176500 0.000000
-0.138080 -0.015890 0.021990 -0.110900 0.525700 0.843400 3.000000
0.065760 -0.076580 -0.013410 -0.022970 -0.997600 -0.064990 0.000000
-0.171230 0.003170 0.014670 -0.027830 0.747400 0.663800 0.000000
-0.123340 0.003010 0.016960 -0.055350 0.488500 0.870800 0.000000
0.062620 -0.059530 0.072390 0.003279 -0.992600 0.121200 1.000000
-0.276700 -0.018350 0.007780 -0.163000 -0.347900 0.923300 0.000000
0.013220 -0.054700 0.134500 0.106600 -0.908200 -0.404700 1.000000
0.012860 -0.053880 0.148040 -0.024920 -0.998000 0.057700 1.000000
0.016340 -0.056780 0.100860 -0.029610 -0.997800 0.058570 1.000000
0.024910 -0.055260 0.129920 -0.011880 -0.998000 0.061940 1.000000
0.017410 -0.053400 0.158020 -0.015600 -0.997900 0.062800 1.000000
0.036440 -0.076000 0.009080 -0.041440 -0.997000 0.065300 0.000000
-0.149370 0.008290 0.007580 0.000343 0.733200 0.680100 0.000000
-0.100130 -0.003050 -0.058950 -0.040550 0.878200 -0.476500 3.000000
-0.156500 -0.017560 0.045720 0.000160 0.294200 -0.955800 3.000000
0.279160 0.001660 0.013710 0.191500 0.846800 0.496300 0.000000
-0.026690 -0.044210 -0.230130 -0.088640 0.995100 0.044660 1.000000
-0.094120 -0.023280 -0.069780 -0.010490 -0.290200 -0.956900 3.000000
-0.131790 -0.062110 0.011200 -0.239100 -0.901600 0.360600 0.000000
-0.107790 -0.067550 -0.013610 -0.240500 -0.909100 -0.340300 0.000000
-0.110940 -0.067710 -0.011180 -0.240500 -0.928100 -0.284100 0.000000
0.129930 -0.023510 0.032970 0.001624 0.276800 0.960900 0.000000
-0.119240 -0.009050 0.041250 -0.103300 0.762400 -0.638800 3.000000
-0.027920 -0.073700 0.003190 -0.007113 -0.996300 0.085520 0.000000
0.018300 -0.031800 0.035160 0.001921 0.233600 0.972300 0.000000
-0.037040 -0.049820 0.137780 -0.079090 0.405200 0.910800 1.000000
-0.262790 0.043580 0.003080 0.081480 0.061530 0.994800 2.000000
-0.091570 -0.072510 0.008800 -0.006362 -0.938000 0.346600 0.000000
-0.034920 -0.073120 0.007170 -0.006676 -0.979000 0.203900 0.000000
-0.125820 -0.030790 -0.044770 -0.120800 -0.744700 0.656400 3.000000
0.034220 -0.074690 -0.007540 -0.294800 0.953500 0.062370 0.000000
-0.116690 -0.026270 0.032550 0.054140 0.131200 0.989900 0.000000
-0.072130 -0.028060 0.041050 0.161700 -0.634500 -0.755800 3.000000
0.006380 -0.043450 0.277560 0.297500 0.950800 0.086880 1.000000
0.286560 -0.075770 -0.004090 -0.006849 -0.991400 -0.131100 0.000000
0.045870 -0.047710 0.042750 -0.113200 0.993300 0.023230 1.000000
0.052800 -0.047330 0.054160 -0.002620 0.999600 -0.028560 1.000000
-0.015880 -0.051390 -0.131460 -0.021370 -0.642800 0.765700 1.000000
-0.005220 -0.065520 0.024710 -0.076400 -0.766000 0.638300 0.000000
-0.267910 0.015010 0.003350 -0.070470 0.020590 0.997300 2.000000
-0.325550 0.096620 -0.085200 0.109900 -0.991500 -0.070010 2.000000
-0.196620 -0.008200 -0.020260 -0.132700 0.263500 -0.955500 0.000000
0.017820 -0.087600 -0.048860 -0.632300 0.606200 0.482500 3.000000
-0.231380 0.014740 0.004640 -0.033210 0.002247 0.999400 2.000000
0.003510 -0.041980 -0.250610 0.038830 0.999000 0.020480 1.000000
0.004500 -0.042180 -0.238320 -0.149200 0.982800 0.109100 1.000000
0.007750 -0.042300 -0.230440 -0.180500 0.980000 0.083780 1.000000
-0.341700 0.099530 0.084500 -0.027380 0.999600 0.010370 2.000000
-0.323110 0.094680 0.010820 -0.038110 0.997000 0.067290 2.000000
-0.026000 -0.020420 0.032390 0.047370 0.308200 0.950200 0.000000
-0.161820 -0.054000 0.011350 -0.259000 -0.864300 0.431100 0.000000
0.014660 -0.050410 0.015560 0.956800 -0.290700 -0.000477 1.000000
-0.333160 0.102710 -0.001210 -0.047400 0.650100 0.758400 2.000000
0.012400 -0.049950 -0.217380 0.020190 -0.998400 -0.052140 1.000000
0.007030 -0.049380 -0.229320 -0.012780 -0.999000 -0.042210 1.000000
0.001040 -0.048580 -0.246800 -0.012510 -0.999100 -0.041590 1.000000
-0.139600 -0.030600 -0.059570 -0.266800 -0.943800 -0.195100 3.000000
0.051450 -0.055380 0.128720 0.059070 -0.994500 0.086360 1.000000
0.311710 -0.019540 -0.022630 0.319700 0.444300 -0.836900 0.000000
-0.071040 -0.001980 -0.052550 0.050730 0.995400 0.081530 3.000000
-0.047960 -0.001340 0.021830 0.004178 0.491100 0.871100 0.000000
-0.072430 -0.004020 0.024410 0.003610 0.797800 0.602900 0.000000
-0.024860 -0.003210 0.023380 0.004647 0.753000 0.658000 0.000000
0.036050 0.000140 0.019960 0.004662 0.580800 0.814100 0.000000
-0.021550 -0.001480 0.021790 0.004647 0.753000 0.658000 0.000000
0.063760 0.001520 0.018540 0.005501 0.815400 0.578800 0.000000
0.230950 0.000850 0.018080 0.005914 0.842100 0.539200 0.000000
-0.298090 0.018440 -0.000650 -0.222200 -0.126700 -0.966700 2.000000
-0.042210 -0.051470 0.205410 -0.033010 -0.107300 0.993700 1.000000
-0.103480 -0.009580 -0.027440 -0.052090 0.469700 -0.881300 0.000000
0.361340 -0.057780 0.011040 0.453600 -0.385000 0.803700 0.000000
-0.126060 -0.012040 -0.040180 -0.091300 0.532200 0.841700 3.000000
0.192710 -0.066130 -0.024140 -0.005124 -0.749600 -0.661800 0.000000
-0.017260 -0.051950 0.057920 -0.338200 0.941000 -0.015220 1.000000
-0.267090 0.065690 0.002940 -0.070820 0.020110 0.997300 2.000000
-0.222500 0.009440 -0.000100 -0.016660 0.082800 -0.996400 2.000000
-0.016410 -0.042420 -0.199920 -0.006356 0.980500 -0.196300 1.000000
0.278330 -0.028780 -0.033440 0.119400 0.273800 -0.954300 0.000000
-0.233030 -0.018640 0.016940 -0.149600 -0.039380 0.988000 0.000000
-0.158050 0.010540 -0.005540 0.050590 0.247600 -0.967500 0.000000
-0.118550 -0.006220 -0.024750 -0.061690 0.503900 -0.861600 0.000000
-0.145180 -0.003280 -0.021590 -0.048880 0.514000 -0.856400 0.000000
0.021200 -0.048610 -0.041720 0.096370 0.991500 0.087170 1.000000
0.019480 -0.047890 -0.064920 -0.029750 0.995800 0.087150 1.000000
-0.353760 0.096340 -0.074380 -0.043390 -0.999000 -0.006778 2.000000
-0.014000 -0.047680 0.262380 -0.035990 0.999000 -0.025000 1.000000
-0.031890 -0.042050 -0.300790 -0.077830 0.996500 0.030600 1.000000
0.024600 -0.049450 0.219790 0.100000 -0.991700 0.080230 1.000000
-0.022870 -0.052140 -0.147980 -0.746300 0.664500 0.039270 1.000000
-0.308390 0.098660 0.043880 0.204800 0.975000 0.086390 2.000000
-0.282640 0.031900 0.002520 -0.044590 -0.127000 0.990900 2.000000
0.098660 -0.022580 0.032760 0.001933 0.277500 0.960700 0.000000
0.042990 -0.061500 0.054210 -0.022950 -0.992800 0.117600 1.000000
0.052170 -0.060750 0.061430 -0.012440 -0.992800 0.119000 1.000000
0.051600 -0.053390 0.149450 0.252100 -0.953400 0.165900 1.000000
0.026480 -0.046860 0.034920 0.016690 0.421700 0.906600 0.000000
-0.065260 -0.042030 0.035470 0.025810 -0.303100 0.952600 0.000000
-0.012750 -0.061370 0.038300 -0.060920 -0.991000 0.119100 0.000000
-0.042670 -0.059650 -0.135160 -0.336200 -0.927000 0.166300 3.000000
-0.104020 -0.033760 0.060120 -0.005927 -0.909100 0.416600 3.000000
0.168860 -0.009290 -0.026760 0.003278 0.471100 -0.882100 0.000000
-0.357910 0.096600 0.084010 -0.084380 -0.996400 -0.002631 2.000000
0.112150 -0.017120 -0.031140 0.002427 0.361100 -0.932500 0.000000
-0.078440 -0.065560 0.022410 -0.005444 -0.784300 0.620400 0.000000
-0.080950 -0.063840 0.024630 -0.009530 -0.619400 0.785000 0.000000
0.277130 -0.016720 0.029560 0.088760 0.580900 0.809100 0.000000
-0.076610 -0.055880 -0.031110 -0.002724 -0.395200 -0.918600 0.000000
-0.226330 0.027660 -0.003780 0.006216 0.028670 -0.999600 2.000000
0.008560 -0.069250 0.021720 -0.090130 -0.891300 0.444500 0.000000
0.252540 -0.002570 -0.021050 0.004732 0.670900 -0.741500 0.000000
0.196430 -0.001330 -0.020280 0.004660 0.670200 -0.742200 0.000000
-0.010260 0.001890 -0.018670 0.004718 0.763700 -0.645600 0.000000
0.225810 -0.003650 -0.022190 0.004835 0.669500 -0.742800 0.000000
-0.000300 -0.047510 0.106410 0.041250 0.997000 -0.066250 1.000000
-0.121730 -0.018910 0.028430 -0.049090 0.715400 0.697000 3.000000
-0.210590 -0.009130 -0.018610 -0.128600 0.252800 -0.958900 0.000000
0.330850 -0.053340 0.025160 0.304700 -0.141400 0.941900 0.000000
-0.093490 -0.016710 -0.014070 -0.009082 0.574700 -0.818300 0.000000
0.050760 -0.062670 -0.045290 -0.012480 -0.992800 -0.118900 1.000000
0.053950 -0.060220 -0.066030 -0.012470 -0.992800 -0.119000 1.000000
0.045330 -0.063250 -0.039890 -0.016090 -0.992800 -0.118300 1.000000
0.007010 -0.054570 0.134000 0.114100 -0.693000 -0.711800 1.000000
-0.019240 -0.011050 -0.028400 0.003202 0.470300 -0.882500 0.000000
0.316450 -0.050090 -0.028780 0.205300 -0.164900 -0.964700 0.000000
-0.285070 0.099480 0.004150 0.164600 0.697300 0.697600 2.000000
-0.052360 -0.054370 -0.135340 -0.608000 0.736800 0.295800 3.000000
-0.004210 -0.051270 -0.184480 -0.035180 -0.997700 -0.057950 1.000000
-0.226870 0.015150 -0.004690 -0.016540 0.063970 -0.997800 2.000000
0.302060 -0.049970 -0.031900 0.196400 -0.130700 -0.971800 0.000000
0.199540 -0.055920 0.031930 -0.002672 -0.384800 0.923000 0.000000
0.273250 -0.077810 -0.007280 0.241000 -0.323600 -0.915000 0.000000
-0.205300 0.005650 0.009710 -0.028440 0.810900 0.584500 2.000000
-0.014510 -0.057980 0.138560 0.029120 -0.554300 0.831800 1.000000
0.215070 -0.070320 -0.018880 -0.005539 -0.818000 -0.575200 0.000000
-0.247580 -0.033630 0.003670 -0.271100 -0.951200 0.147400 0.000000
-0.095400 -0.019510 0.025270 0.027020 0.964100 0.264100 3.000000
0.125790 -0.064530 0.025560 -0.004371 -0.639900 0.768400 0.000000
0.026090 -0.099530 -0.048870 0.017560 -0.922300 -0.386000 3.000000
-0.186940 0.006210 -0.009740 -0.027780 0.854900 -0.518100 2.000000
0.016460 -0.048700 -0.239570 0.176200 0.978900 -0.103700 1.000000
-0.040900 -0.060960 -0.027400 -0.144400 -0.790400 -0.595300 0.000000
-0.334430 0.099440 -0.088890 0.035890 0.999300 -0.011710 2.000000
0.148780 -0.069410 0.019460 -0.005541 -0.793400 0.608700 0.000000
-0.068440 -0.030290 -0.044050 0.188400 -0.690900 0.698000 3.000000
0.093970 -0.076130 -0.011390 0.165900 -0.985700 -0.029780 0.000000
0.039520 -0.060020 0.014480 -1.000000 0.006986 0.000705 0.000000
0.002820 -0.058670 -0.137030 0.141700 -0.668900 -0.729700 1.000000
-0.301020 0.003600 0.004170 -0.190500 0.440000 0.877500 2.000000
-0.034240 -0.057760 -0.038540 -0.279700 -0.942900 -0.180800 0.000000
0.027180 -0.070920 -0.051890 0.028610 -0.196800 0.980000 3.000000
0.030950 -0.069830 0.022270 0.085940 0.853000 -0.514800 0.000000
-0.123980 -0.018910 -0.026650 -0.129600 0.804300 -0.580000 0.000000
0.044040 -0.076450 0.005630 -0.054600 -0.996300 0.066880 0.000000
-0.098130 -0.034730 -0.050680 -0.008800 -0.999500 0.029100 3.000000
0.109200 -0.003430 0.022730 0.004606 0.661600 0.749800 0.000000
0.045470 -0.005080 0.024630 0.004175 0.504700 0.863300 0.000000
0.157420 -0.005760 0.024540 0.003353 0.501000 0.865500 0.000000
0.022170 -0.005150 0.024840 0.004178 0.504500 0.863400 0.000000
0.192640 -0.002070 0.020970 -0.010150 0.652800 0.757400 0.000000
0.195190 -0.005640 0.024180 0.004270 0.634400 0.773000 0.000000
0.020150 -0.072600 -0.014550 -0.085800 -0.902800 -0.421400 0.000000
0.029770 -0.048500 0.035550 0.046480 0.783100 0.620200 1.000000
0.024460 -0.048580 0.039060 -0.029630 0.974500 0.222600 1.000000
-0.347050 0.099400 0.077300 -0.029100 0.999500 -0.012070 2.000000
0.173960 -0.016370 0.030510 0.002822 0.377600 0.925900 0.000000
-0.000370 -0.041780 0.280510 0.173400 0.984100 0.038540 1.000000
-0.248430 0.036830 -0.003330 -0.007806 0.011940 -0.999900 2.000000
-0.013250 -0.057980 0.066030 -0.102800 -0.986200 0.129900 1.000000
-0.135660 -0.029550 -0.045160 -0.142700 -0.797200 0.586500 3.000000
-0.030720 -0.056750 0.049390 -0.460900 -0.859600 0.220500 1.000000
-0.130230 -0.063910 -0.006920 -0.252900 -0.954800 -0.156400 0.000000
-0.227110 -0.011540 -0.017000 -0.132700 0.218200 -0.966800 0.000000
0.139450 -0.066070 -0.023740 -0.005546 -0.792600 -0.609700 0.000000
-0.087660 -0.018410 0.037320 -0.010530 -0.312900 -0.949700 3.000000
0.032070 -0.048370 -0.036750 -0.034020 0.959700 -0.279100 1.000000
-0.271310 -0.000340 0.003190 -0.169900 0.323400 0.930900 2.000000
0.021600 -0.053100 -0.047470 0.965500 -0.260300 -0.004825 1.000000
0.017730 -0.067160 -0.024940 -0.043760 -0.642900 -0.764700 0.000000
0.022930 -0.105710 -0.041460 -0.210900 -0.851500 0.480100 3.000000
-0.010410 -0.043150 0.216170 -0.037830 0.999000 -0.025550 1.000000
-0.021150 -0.042360 0.264050 -0.040780 0.997600 -0.055660 1.000000
-0.022610 -0.046560 -0.285920 -0.028550 -0.998800 -0.039310 1.000000
-0.020000 -0.047130 -0.272800 -0.026530 -0.998900 -0.038770 1.000000
-0.195410 0.009270 -0.000860 -0.009929 0.116200 -0.993200 2.000000
-0.129500 -0.001330 -0.000770 0.006940 0.835800 -0.549100 2.000000
-0.140780 0.008340 -0.007690 0.085430 0.800500 -0.593200 0.000000
-0.029260 -0.057710 0.132250 -0.044840 -0.284000 -0.957800 1.000000
0.261040 -0.061960 0.028250 -0.004235 -0.609000 0.793200 0.000000
-0.152650 -0.044770 -0.025140 -0.179700 -0.426600 -0.886400 0.000000
-0.006260 -0.044020 -0.187520 -0.111000 0.993800 0.006772 1.000000
-0.060390 -0.007140 -0.045440 0.442400 0.638600 0.629700 3.000000
-0.215320 -0.040580 0.008550 -0.242700 -0.857700 0.453300 0.000000
0.216990 -0.068590 -0.021160 -0.005520 -0.793000 -0.609200 0.000000
0.091010 -0.074930 0.016820 0.180200 -0.932100 0.314200 0.000000
-0.289370 0.097440 -0.012330 0.152200 0.944000 -0.292600 2.000000
0.122930 -0.033420 -0.035270 0.000933 0.131100 -0.991400 0.000000
0.184430 -0.031170 -0.034920 0.001880 0.263300 -0.964700 0.000000
0.164500 -0.031720 -0.035010 0.000924 0.131800 -0.991300 0.000000
0.126320 -0.031920 -0.035070 0.000981 0.157700 -0.987500 0.000000
0.012260 -0.060120 0.058870 -0.039700 -0.992200 0.118100 1.000000
0.013030 -0.069850 0.021120 -0.076090 -0.885200 0.459000 0.000000
-0.219190 0.036070 -0.003300 0.052630 0.078930 -0.995500 2.000000
-0.308830 0.093530 0.008000 -0.020710 -0.895000 0.445600 2.000000
-0.027470 -0.023970 0.033420 0.000607 0.167100 0.985900 0.000000
0.080420 -0.049730 -0.070600 0.380200 0.918100 -0.111900 1.000000
0.041770 -0.045140 -0.169440 0.291000 0.954400 -0.066890 1.000000
0.257820 -0.060060 0.029700 -0.004235 -0.609000 0.793200 0.000000
-0.065070 -0.047530 0.034640 0.054870 -0.362100 0.930500 0.000000
0.071760 -0.056270 0.099170 0.539700 -0.814200 0.214200 1.000000
0.031070 -0.059930 -0.037880 -0.869600 -0.484200 -0.096570 1.000000
-0.028100 -0.051120 -0.145770 -0.746300 0.664500 0.039270 1.000000
0.160130 -0.009470 0.026890 0.003287 0.470200 0.882600 0.000000
0.007530 -0.060540 0.053800 -0.038670 -0.992500 0.116300 1.000000
0.013120 -0.056400 0.014260 0.956800 -0.290700 -0.000477 0.000000
0.013070 -0.064030 0.009310 0.997100 -0.034030 -0.068440 0.000000
-0.349770 0.096160 -0.009360 -0.170700 -0.965000 -0.199200 2.000000
-0.012600 -0.059500 0.053800 -0.078660 -0.989100 0.124300 1.000000
0.033780 -0.043970 0.163180 0.004365 0.999500 -0.029750 1.000000
0.050310 -0.047100 -0.062770 -0.088090 0.995700 0.029050 1.000000
0.047570 -0.047540 -0.048330 -0.006996 0.999500 0.029810 1.000000
-0.014120 -0.051350 0.059840 -0.165100 0.983500 -0.073610 1.000000
0.049590 -0.046160 -0.092560 -0.007240 0.999400 0.033500 1.000000
0.045940 -0.046560 -0.081540 -0.007206 0.998900 -0.046910 1.000000
0.050580 -0.046490 -0.082470 -0.033940 0.998800 -0.034090 1.000000
0.026500 -0.043310 -0.182700 0.004730 1.000000 0.005656 1.000000
0.035050 -0.044450 -0.146620 0.038870 0.999100 0.019140 1.000000
0.313930 -0.070190 0.016630 0.091480 -0.828800 0.552000 0.000000
-0.036610 -0.045260 -0.199120 -0.090200 0.447700 0.889600 1.000000
0.031310 -0.026090 -0.033910 0.001361 0.186100 -0.982500 0.000000
-0.020060 -0.052670 0.061210 -0.146400 0.988900 -0.024710 1.000000
-0.281440 0.058430 -0.002750 -0.017040 -0.004327 -0.999800 2.000000
0.087740 -0.072660 -0.023140 0.047340 -0.538500 -0.841300 0.000000
0.037000 -0.046920 -0.073920 0.062040 0.995400 0.073390 1.000000
-0.009200 -0.052490 -0.159420 -0.056040 -0.996900 -0.054420 1.000000
0.289680 -0.069610 -0.019950 0.012310 -0.794800 -0.606800 0.000000
-0.216020 0.029100 0.003660 0.028570 -0.019800 0.999400 2.000000
-0.059470 -0.024630 -0.033670 0.214700 0.340400 -0.915500 0.000000
-0.038410 -0.019840 0.032250 0.043510 0.350200 0.935700 0.000000
-0.351560 0.098160 -0.030170 0.020900 0.999600 0.016860 2.000000
-0.084590 -0.003940 -0.061790 -0.010440 0.867400 -0.497500 3.000000
-0.093740 -0.014570 0.014150 -0.129700 0.351500 0.927200 3.000000
-0.144600 -0.008210 0.047260 -0.331400 0.843600 -0.422400 3.000000
-0.021160 -0.041910 0.278510 -0.123000 0.992100 -0.026480 1.000000
-0.019450 -0.042040 0.270900 -0.085380 0.995600 0.039740 1.000000
-0.123770 -0.018370 0.041500 -0.099860 -0.479900 -0.871600 3.000000
0.311980 -0.075500 -0.000740 0.053390 -0.995200 -0.081760 0.000000
-0.229260 0.059430 -0.001490 0.242200 0.216200 -0.945800 2.000000
-0.260250 -0.004960 -0.010800 -0.151100 0.150300 -0.977000 2.000000
0.046320 -0.053250 0.156480 0.083200 -0.992200 0.092560 1.000000
-0.180920 -0.038790 -0.022460 -0.215800 -0.525700 -0.822900 0.000000
0.021220 -0.035430 -0.035630 0.000927 0.130600 -0.991400 0.000000
-0.074010 -0.029850 -0.034980 0.000999 0.136400 -0.990700 0.000000
0.006660 -0.038090 -0.035990 -0.000288 -0.030890 -0.999500 0.000000
0.085280 -0.037810 -0.035880 -0.000302 -0.006619 -1.000000 0.000000
0.235180 -0.011880 -0.027890 0.003217 0.470400 -0.882400 0.000000
0.157180 -0.063440 -0.026560 -0.004270 -0.608900 -0.793200 0.000000
0.092850 -0.054450 0.058200 0.502300 0.841500 0.198800 1.000000
-0.298690 0.072160 0.002480 -0.126300 0.053160 0.990600 2.000000
-0.137150 0.014140 -0.003440 0.250200 0.949900 0.187200 0.000000
0.166110 -0.002350 0.021390 0.046880 0.651400 0.757200 0.000000
0.252660 -0.005310 0.023520 0.004596 0.643200 0.765700 0.000000
0.102390 -0.005690 0.024820 0.003721 0.555000 0.831800 0.000000
0.241310 -0.003820 0.022240 -0.008343 0.769100 0.639100 0.000000
0.233710 -0.006820 0.025010 0.004319 0.641400 0.767200 0.000000
0.222310 -0.004180 0.022700 0.018410 0.646600 0.762600 0.000000
0.138980 -0.002740 0.021910 0.004685 0.671000 0.741500 0.000000
0.181430 -0.005660 0.024290 0.003690 0.505100 0.863100 0.000000
0.336340 -0.023080 -0.000920 0.718700 0.692100 -0.067180 0.000000
-0.352250 0.099290 -0.080560 -0.066750 0.997700 -0.011480 2.000000
0.038280 -0.052680 0.169260 0.063920 -0.994100 0.087280 1.000000
-0.348260 0.098580 -0.033260 0.140200 0.990000 -0.014730 2.000000
-0.343110 0.098560 -0.017150 0.149200 0.984000 -0.096960 2.000000
-0.029560 -0.045970 0.292630 -0.034280 -0.997700 0.058680 1.000000
-0.004940 -0.050400 0.049080 -0.186600 0.982300 -0.014050 1.000000
0.025110 -0.019160 -0.031930 0.003143 0.346200 -0.938200 0.000000
0.161350 -0.068760 -0.020420 -0.005542 -0.793300 -0.608800 0.000000
0.094020 -0.076120 0.005910 0.172900 -0.984900 0.000235 0.000000
0.036730 -0.045830 0.105160 -0.061840 0.997000 -0.047240 1.000000
0.029950 -0.044040 0.160120 0.004365 0.999500 -0.029750 1.000000
0.035930 -0.044630 0.141080 0.018700 0.999500 -0.025810 1.000000
0.036470 -0.045060 0.128120 -0.007074 0.999400 -0.033290 1.000000
0.043340 -0.046380 0.087270 -0.023330 0.998600 -0.047500 1.000000
-0.071020 -0.003570 -0.061090 0.102900 0.836700 -0.538000 3.000000
-0.017510 -0.045670 0.176250 -0.151800 0.986600 -0.059010 1.000000
0.104620 -0.048580 -0.034700 -0.000907 -0.130700 -0.991400 0.000000
-0.290260 0.097850 0.011490 0.263600 0.926000 0.270100 2.000000
-0.124340 -0.022660 -0.068940 -0.116300 -0.344600 -0.931500 3.000000
0.028330 -0.082350 -0.051490 0.337300 0.916700 -0.214400 3.000000
-0.222820 0.005160 0.005100 -0.037260 0.634400 0.772100 2.000000
-0.027830 -0.041530 0.309430 0.068600 0.996700 -0.043000 1.000000
