-0.030440 -0.337560 0.267690 -0.321400 -0.156200 0.934000 5.000000
-0.011920 0.236700 0.134460 0.989100 0.091750 0.115100 4.000000
-0.032040 0.014810 0.172760 -0.758400 -0.026090 -0.651200 4.000000
-0.018250 -0.018830 -0.215820 -0.927600 0.010500 -0.373400 4.000000
-0.016920 0.075340 0.259350 -0.998300 -0.050260 -0.029620 5.000000
0.020810 0.120870 0.003220 0.000129 1.000000 -0.000129 5.000000
0.020180 0.120870 0.008090 0.000129 1.000000 -0.000129 5.000000
0.007880 0.120870 -0.006060 0.035790 0.998700 0.035680 5.000000
0.041940 -0.029340 0.159350 0.992000 0.091100 -0.087260 4.000000
-0.033110 0.071100 0.201010 0.083190 0.104100 0.991100 4.000000
0.029210 0.008430 0.071490 0.985200 0.125500 -0.117000 5.000000
-0.032080 0.035040 -0.233970 -0.577500 0.090470 -0.811400 4.000000
-0.082390 -0.304230 -0.163140 -0.940300 0.164400 -0.298000 5.000000
-0.063410 -0.247150 -0.192250 -0.978000 0.144700 -0.150400 5.000000
-0.060100 -0.188540 -0.170250 -0.942600 0.163000 -0.291500 5.000000
-0.069180 -0.264630 -0.183460 -0.941000 0.165200 -0.295400 5.000000
-0.071520 -0.257380 -0.171940 -0.941400 0.163100 -0.295300 5.000000
-0.071540 -0.261990 -0.174440 -0.942200 0.163000 -0.292900 5.000000
-0.087210 -0.334360 -0.164450 -0.951100 0.066500 -0.301800 5.000000
-0.072600 -0.308770 -0.197040 -0.973400 0.149500 -0.173600 5.000000
-0.071300 -0.288060 -0.189700 -0.941400 0.163400 -0.295000 5.000000
-0.019890 -0.085270 0.311950 -0.992900 0.043300 0.110900 5.000000
-0.020410 -0.020050 -0.276980 -0.884300 -0.023330 -0.466200 5.000000
0.026990 -0.193810 0.286490 0.746100 -0.055600 0.663600 5.000000
0.020770 -0.074110 0.298120 0.910900 0.026820 0.411700 5.000000
0.023780 -0.147900 0.294110 0.996800 0.078490 0.013490 5.000000
-0.018690 0.049350 0.190120 -0.762400 0.211200 0.611700 4.000000
-0.022270 -0.030230 -0.201850 -0.974400 0.039090 0.221300 4.000000
0.033880 0.166820 0.130390 0.948800 -0.055390 -0.311000 4.000000
0.011150 -0.247940 -0.302790 0.799400 -0.205200 -0.564700 5.000000
0.009910 -0.226430 -0.305730 0.191800 -0.180800 -0.964600 5.000000
0.060290 -0.139920 -0.066700 0.979900 0.199600 -0.008285 5.000000
-0.033770 -0.006250 0.052510 -0.878300 -0.478200 0.000299 5.000000
-0.014540 0.277650 -0.140290 0.863300 0.301000 -0.405100 4.000000
0.023650 0.343850 -0.050270 0.736600 0.659400 -0.150500 4.000000
-0.056800 -0.332840 0.246180 -0.847700 0.001539 0.530500 5.000000
-0.008480 0.297080 -0.085170 0.931300 -0.315800 0.181500 4.000000
0.010910 0.237300 -0.192490 -0.951500 0.108500 -0.288000 4.000000
0.019250 0.261800 -0.133530 -0.560300 -0.579900 0.591300 4.000000
-0.009240 0.111970 -0.050380 -0.003478 0.422100 -0.906500 5.000000
-0.033760 0.264170 -0.122890 -0.970200 -0.130100 0.204400 4.000000
-0.023710 -0.045130 0.165360 -0.942600 0.257400 -0.212700 4.000000
0.057880 -0.342890 -0.231950 0.939700 -0.078630 -0.332700 5.000000
-0.016920 0.093030 0.177370 0.406900 0.892300 0.195600 5.000000
-0.062500 -0.173140 -0.130070 -0.983800 0.178700 -0.016920 5.000000
-0.020430 0.059530 -0.121400 -0.983700 0.178900 -0.018230 5.000000
-0.040990 -0.056550 -0.148790 -0.983700 0.178700 -0.020980 5.000000
-0.013450 0.100740 -0.094270 -0.953100 -0.302600 0.006718 5.000000
-0.069640 -0.212290 -0.128220 -0.983800 0.178600 -0.017120 5.000000
-0.076650 -0.251760 -0.136430 -0.983600 0.179500 -0.017450 5.000000
-0.030590 0.005340 -0.103770 -0.982000 0.188600 -0.013330 5.000000
-0.039790 -0.046030 -0.110300 -0.983800 0.178500 -0.018210 5.000000
-0.059530 -0.156330 -0.125560 -0.983700 0.179000 -0.018130 5.000000
-0.044350 -0.073450 -0.133070 -0.983800 0.178400 -0.018220 5.000000
-0.073040 -0.231620 -0.133630 -0.977700 0.191600 -0.085690 5.000000
-0.029200 0.008620 -0.146780 -0.983900 0.177800 -0.018280 5.000000
-0.071180 -0.222630 -0.146380 -0.983300 0.177200 -0.041790 5.000000
-0.025520 0.031980 -0.116420 -0.984000 0.177200 -0.017080 5.000000
-0.047610 -0.091800 -0.136530 -0.983600 0.179300 -0.018550 5.000000
-0.052080 -0.118090 -0.153080 -0.983800 0.177600 -0.022970 5.000000
-0.053090 -0.123590 -0.152580 -0.983800 0.177600 -0.022970 5.000000
0.026700 0.042460 -0.030320 0.993500 0.113500 0.000000 5.000000
0.026890 0.040880 -0.023940 0.993100 0.117200 0.000000 5.000000
0.021010 0.090770 0.042470 -0.670900 0.741600 -0.000756 5.000000
0.023100 0.073050 0.010040 0.984500 0.160100 0.071100 5.000000
0.028640 0.026050 0.050000 0.997600 0.059630 -0.035720 5.000000
0.029190 0.021400 0.011790 0.993100 0.117100 0.000000 5.000000
0.019590 0.102770 0.033790 -0.990000 0.140900 -0.000207 5.000000
-0.044270 -0.001160 -0.215180 -0.993100 0.047370 0.107700 4.000000
0.000850 0.017120 0.334560 -0.010230 -0.087480 0.996100 5.000000
-0.002660 0.101030 0.075960 -0.000007 0.999400 0.035960 5.000000
-0.075520 -0.222310 -0.053110 -0.953400 0.136300 0.269300 5.000000
-0.042590 -0.057940 -0.020760 -0.810400 0.579000 0.089260 5.000000
-0.078650 -0.236590 -0.047070 -0.979400 0.199900 -0.030380 5.000000
-0.077820 -0.229760 -0.028150 -0.973700 0.191400 -0.123800 5.000000
-0.095970 -0.319360 -0.039240 -0.979100 0.201000 -0.030360 5.000000
-0.068340 -0.183550 -0.026360 -0.979200 0.200700 -0.029290 5.000000
-0.081870 -0.250930 -0.038660 -0.978800 0.202500 -0.030010 5.000000
-0.096820 -0.323740 -0.040950 -0.978300 0.204800 -0.031230 5.000000
-0.084500 -0.262400 -0.030020 -0.978200 0.205100 -0.031620 5.000000
-0.095790 -0.321670 -0.060740 -0.978100 0.143800 0.150300 5.000000
-0.052010 -0.104680 -0.028070 -0.975900 0.108900 0.189100 5.000000
-0.094380 -0.314740 -0.059920 -0.972100 0.120800 0.201000 5.000000
-0.075570 -0.221880 -0.048500 -0.974100 0.225700 -0.014910 5.000000
-0.009070 0.311080 0.001640 0.900900 -0.426700 -0.079620 4.000000
0.030730 -0.231820 0.281530 0.926000 0.353300 0.132800 5.000000
0.033270 0.179410 -0.216750 0.911400 0.177800 -0.371100 4.000000
-0.074080 -0.195560 -0.006470 -0.950800 0.200600 -0.236000 5.000000
-0.068160 -0.165670 -0.005360 -0.961300 0.209800 -0.178700 5.000000
-0.055970 -0.102580 -0.001720 -0.979400 0.201600 0.006494 5.000000
-0.041650 -0.039710 -0.006940 -0.952600 0.197100 -0.231600 5.000000
-0.008440 0.078270 0.258820 -0.024530 0.942300 0.333900 5.000000
0.067640 -0.178600 -0.069030 0.980700 0.195300 0.003258 5.000000
0.027130 0.025550 -0.081540 0.884300 0.276000 -0.376600 5.000000
0.079380 -0.241900 -0.059610 0.979800 0.196900 0.036160 5.000000
0.081520 -0.249420 -0.063540 0.978900 0.202200 0.030370 5.000000
0.084460 -0.265990 -0.060170 0.980300 0.196600 -0.018860 5.000000
0.097180 -0.329100 -0.057650 0.981500 0.093690 -0.166900 5.000000
-0.032980 0.107560 -0.223510 -0.223700 0.239900 -0.944700 4.000000
-0.043020 0.024630 0.180090 -0.998500 0.032660 -0.042820 4.000000
-0.028530 0.310590 -0.097870 -0.878000 0.411000 -0.245300 4.000000
-0.014140 0.029670 0.323420 -0.999500 -0.007855 0.031020 5.000000
-0.095560 -0.316710 -0.002440 -0.809400 0.111000 0.576700 5.000000
-0.095960 -0.327290 0.046320 -0.986400 0.160500 0.034900 5.000000
-0.097560 -0.327110 -0.000410 -0.807200 0.024560 0.589800 5.000000
-0.097220 -0.323380 -0.011870 -0.956400 0.197900 -0.215000 5.000000
-0.074400 -0.216090 0.029730 -0.915600 0.046730 0.399400 5.000000
-0.095870 -0.322100 0.019450 -0.980700 0.192400 0.035770 5.000000
-0.080080 -0.248520 0.051980 -0.981600 0.191000 -0.003411 5.000000
-0.095620 -0.323430 0.034120 -0.986400 0.160500 0.034900 5.000000
-0.087490 -0.284180 0.042980 -0.980300 0.194100 0.035830 5.000000
-0.036570 -0.031560 0.061270 -0.984200 0.176600 0.011250 5.000000
-0.069610 -0.194470 0.043690 -0.980300 0.194600 0.035150 5.000000
-0.048790 -0.090070 0.044900 -0.923200 0.039720 0.382300 5.000000
-0.089420 -0.292680 0.036410 -0.980000 0.195900 0.034270 5.000000
-0.087560 -0.280400 0.019590 -0.980300 0.195100 0.031140 5.000000
-0.063250 -0.163130 0.047280 -0.979700 0.197300 0.034920 5.000000
-0.090100 -0.297650 0.045040 -0.979700 0.197300 0.035300 5.000000
-0.028030 -0.020810 0.243320 -0.988000 0.147100 0.047430 5.000000
-0.044200 -0.127310 0.235490 -0.988000 0.146100 0.049140 5.000000
-0.038410 -0.093220 0.250990 -0.972100 0.120100 0.201600 5.000000
-0.023510 0.005020 0.257590 -0.987800 0.147900 0.047830 5.000000
-0.025450 -0.000400 0.233740 -0.988200 0.147400 0.042050 5.000000
-0.019520 0.033930 0.251450 -0.987900 0.147700 0.046980 5.000000
-0.033810 -0.060480 0.245500 -0.988200 0.145800 0.046440 5.000000
-0.023020 0.006950 0.262020 -0.987900 0.147500 0.047070 5.000000
-0.023700 0.001600 0.264250 -0.988000 0.147000 0.047470 5.000000
-0.047470 -0.143140 0.216130 -0.987600 0.155300 -0.022300 5.000000
-0.014680 0.068830 0.244250 -0.999900 0.009501 0.008428 5.000000
-0.018180 0.040090 0.260320 -0.988100 0.146400 0.047420 5.000000
-0.031960 -0.051150 0.255350 -0.987900 0.147600 0.048070 5.000000
0.008360 -0.153230 0.306800 0.914300 -0.056190 0.401000 5.000000
-0.018260 0.042710 -0.215070 0.275400 -0.004998 -0.961300 4.000000
-0.010350 0.298840 -0.067010 0.848500 -0.446500 0.283900 4.000000
0.015990 -0.004670 -0.217910 0.821900 0.330500 0.463900 4.000000
0.012200 0.211650 0.135420 -0.710200 0.285800 0.643400 4.000000
0.002390 0.091570 -0.211000 0.007189 0.980500 -0.196400 5.000000
0.036440 -0.148910 -0.262350 0.907000 0.018270 -0.420600 5.000000
0.053700 -0.298680 -0.245850 0.912500 0.019720 -0.408600 5.000000
0.044680 -0.216570 -0.248060 0.976600 0.145000 0.158600 5.000000
0.015150 0.064440 -0.224910 -0.100200 -0.229100 0.968200 4.000000
-0.021690 -0.007910 0.173590 -0.857200 0.083500 -0.508200 4.000000
-0.042420 -0.021370 -0.225620 -0.927600 0.010500 -0.373400 4.000000
0.023680 -0.056140 -0.276630 0.854100 0.139400 -0.501100 5.000000
0.030360 -0.143980 -0.271230 0.778900 -0.030920 -0.626400 5.000000
0.030530 -0.116140 -0.269440 0.815400 0.032040 -0.578000 5.000000
0.040500 -0.277930 -0.263100 0.823400 0.027060 -0.566900 5.000000
0.060040 -0.327950 -0.235950 0.915000 0.068550 -0.397700 5.000000
0.031300 -0.183090 -0.271960 0.737200 0.023150 -0.675300 5.000000
0.021400 -0.113050 -0.302420 0.998500 0.054820 0.008895 5.000000
0.016090 -0.035960 -0.317670 0.975300 0.037870 -0.217700 5.000000
0.022940 0.022660 0.165470 0.997800 0.042410 0.050910 5.000000
0.029880 -0.009280 0.157810 0.765000 0.244000 -0.596000 5.000000
0.047800 -0.096420 0.140750 0.951200 0.219400 -0.217000 5.000000
0.056700 -0.130740 0.126990 0.952400 0.189000 -0.239400 5.000000
-0.046590 -0.054940 -0.218140 -0.997100 0.024440 -0.072690 4.000000
0.026460 -0.351220 0.240690 0.000000 -1.000000 0.000000 5.000000
0.008180 0.061220 0.287780 0.007642 0.873300 0.487100 5.000000
-0.079800 -0.351220 -0.142510 0.000000 -1.000000 0.000000 5.000000
-0.011930 -0.351220 -0.114210 0.000000 -1.000000 0.000000 5.000000
-0.078890 -0.351220 -0.111830 0.000000 -1.000000 0.000000 5.000000
0.012100 -0.351220 -0.132970 0.000000 -1.000000 0.000000 5.000000
-0.033520 -0.351220 -0.120500 0.000000 -1.000000 0.000000 5.000000
-0.042830 0.034780 -0.214590 -0.998900 0.042340 -0.021260 4.000000
0.023680 0.021410 -0.113300 0.981500 0.186000 0.045800 5.000000
0.019380 0.052150 -0.094020 0.977100 0.175400 -0.120700 5.000000
0.020810 0.043210 -0.092390 0.951400 0.135500 -0.276700 5.000000
0.015220 0.079550 -0.090510 0.976600 0.208900 -0.051310 5.000000
-0.012680 0.005000 -0.331490 -0.985800 -0.132100 -0.103700 5.000000
0.017930 -0.017690 0.159000 0.996200 0.058820 -0.063710 4.000000
-0.016460 0.028600 0.283060 -0.967700 0.097200 0.232400 5.000000
0.032490 -0.146990 0.282200 0.777300 -0.048280 0.627300 5.000000
0.038330 -0.159270 0.272910 0.757200 0.001523 0.653200 5.000000
0.043980 -0.245240 0.260770 0.766300 -0.061470 0.639500 5.000000
0.054840 -0.320870 0.241260 0.899100 0.025280 0.437100 5.000000
-0.028230 0.037470 0.029300 -0.974300 0.031410 0.222900 5.000000
-0.041760 0.011170 0.007460 -1.000000 0.000000 0.000000 5.000000
-0.027710 -0.039820 0.210320 -0.440200 -0.291500 0.849300 4.000000
-0.022190 -0.037720 0.185680 -0.989200 0.146000 0.012060 4.000000
0.000320 0.102870 -0.024800 0.975900 -0.218200 -0.001352 5.000000
0.019500 0.010360 0.151170 0.779800 0.102900 -0.617600 4.000000
0.036620 0.008790 -0.078000 0.564800 0.035000 -0.824500 5.000000
0.021850 -0.108720 -0.284810 0.975300 0.075650 -0.207400 5.000000
0.024540 -0.155170 -0.284680 0.997500 0.068000 0.018850 5.000000
0.019060 -0.060280 -0.284950 0.931500 0.176500 -0.318000 5.000000
0.076680 -0.220370 0.115920 0.950400 0.296900 -0.092580 5.000000
-0.084460 -0.339620 0.150160 -0.984000 0.002819 0.178200 5.000000
0.033090 0.211260 -0.196360 0.941400 0.194100 -0.275900 4.000000
0.010810 0.330770 -0.103060 -0.531200 0.694300 -0.485600 4.000000
0.050350 -0.208760 0.238450 0.924600 0.062220 0.375800 5.000000
0.062770 -0.291510 0.221680 0.925000 0.063470 0.374700 5.000000
0.063000 -0.268890 0.217310 0.921800 0.059130 0.383100 5.000000
0.040310 -0.116460 0.247760 0.885000 0.009804 0.465600 5.000000
0.072840 -0.300390 0.198340 0.972200 0.115900 0.203500 5.000000
0.064090 -0.282070 0.216820 0.924800 0.062470 0.375200 5.000000
0.038320 -0.100050 0.249910 0.976400 0.120000 0.179700 5.000000
0.016860 0.023310 0.171570 0.717600 0.179100 0.673100 4.000000
-0.020830 -0.002140 -0.275760 -0.904700 0.062690 -0.421300 5.000000
-0.032520 -0.102960 -0.250980 -0.993700 0.106800 -0.034430 5.000000
-0.031830 -0.093240 -0.240740 -0.994300 0.104600 -0.021930 5.000000
-0.024180 -0.023760 -0.246150 -0.940200 0.052280 -0.336600 5.000000
-0.027170 -0.053690 -0.252630 -0.993500 0.108000 -0.034660 5.000000
-0.015860 0.049500 -0.259110 -0.993700 0.106800 -0.034410 5.000000
-0.019130 0.025250 -0.239890 0.002799 0.198800 -0.980000 5.000000
-0.025400 -0.037280 -0.252780 -0.993800 0.106900 -0.031480 5.000000
-0.027660 -0.063980 -0.270500 -0.993600 0.106600 -0.036780 5.000000
-0.051130 -0.275950 -0.250710 -0.994700 0.102700 0.011190 5.000000
-0.022990 -0.019900 -0.268500 -0.993600 0.107700 -0.034680 5.000000
0.100220 -0.334250 0.011400 0.985700 -0.158800 -0.057190 5.000000
0.038350 -0.037570 0.154600 0.971900 0.228300 -0.057200 5.000000
0.098060 -0.335080 0.073850 0.984400 -0.173000 0.032190 5.000000
-0.074100 -0.347870 0.202420 -0.591900 -0.767800 0.245300 5.000000
0.068080 -0.183660 -0.034170 0.979100 0.144700 -0.143000 5.000000
0.071040 -0.201680 -0.032560 0.947400 0.145600 -0.284900 5.000000
-0.040450 -0.014060 0.167640 -0.908000 0.078150 -0.411700 4.000000
-0.009440 0.101360 0.066780 -0.995500 -0.085070 -0.041970 5.000000
0.030210 -0.162260 0.283480 0.695000 -0.016530 0.718800 5.000000
-0.020350 0.302790 -0.008450 -0.146200 -0.967900 -0.204300 4.000000
-0.037840 0.141210 0.157270 -0.949900 -0.040570 -0.309800 4.000000
0.041390 0.010530 0.043250 0.999100 0.043200 -0.000000 5.000000
0.028480 0.259550 -0.177530 0.819000 0.380900 -0.429200 4.000000
-0.028100 -0.217600 -0.292810 -0.481100 -0.121100 -0.868300 5.000000
-0.098470 -0.340830 -0.059470 -0.999500 0.002658 -0.030600 5.000000
0.067560 -0.351220 0.163860 0.000000 -1.000000 0.000000 5.000000
0.061440 -0.351220 0.154540 0.000000 -1.000000 0.000000 5.000000
0.079160 -0.351220 0.173810 0.968000 -0.147500 0.202900 5.000000
-0.009940 -0.351220 0.190040 0.000000 -1.000000 0.000000 5.000000
0.083070 -0.326310 0.173380 0.952300 0.097890 0.288900 5.000000
0.081300 -0.274050 0.157610 0.972900 0.212300 0.091450 5.000000
0.052240 -0.151350 0.200570 0.931700 0.074530 0.355400 5.000000
0.072790 -0.281110 0.187840 0.886200 0.089650 0.454600 5.000000
0.041230 -0.070540 0.202740 0.952400 0.130000 0.275600 5.000000
0.078950 -0.299300 0.175520 0.948000 0.121100 0.294400 5.000000
0.079370 -0.308140 0.177800 0.947500 0.121800 0.295700 5.000000
0.050230 -0.126310 0.196750 0.951300 0.100600 0.291300 5.000000
0.014890 0.254520 -0.138390 -0.659600 -0.492600 0.567700 4.000000
-0.000060 0.111990 0.030530 0.000000 1.000000 0.000388 5.000000
-0.025220 0.070610 -0.023810 -0.821200 0.521700 -0.231300 5.000000
-0.064440 -0.154730 0.075410 -0.966600 0.191400 -0.170600 5.000000
-0.025180 0.029050 0.072480 -0.963600 0.109200 0.243900 5.000000
-0.045210 -0.061520 0.076560 -0.952400 0.197100 -0.232500 5.000000
-0.084360 -0.253160 0.072760 -0.961500 0.195100 -0.193600 5.000000
-0.036920 0.179910 0.146180 -0.904700 -0.158000 -0.395700 4.000000
0.021890 0.120870 -0.001590 0.000129 1.000000 -0.000129 5.000000
0.027700 0.120870 -0.014890 0.997200 0.074810 0.000001 5.000000
0.018000 0.120870 -0.028720 -0.071290 0.997000 -0.028560 5.000000
-0.041330 0.041440 -0.202550 -0.907400 -0.001512 0.420300 4.000000
0.047160 -0.054250 0.184400 0.788500 -0.067050 0.611300 4.000000
-0.032530 -0.000960 0.143740 -0.977300 0.114800 0.178100 5.000000
-0.040120 -0.042520 0.131100 -0.980900 0.193300 0.022220 5.000000
-0.077170 -0.219720 0.095040 -0.877300 0.123600 0.463700 5.000000
-0.097360 -0.340090 -0.095500 -0.997600 -0.058760 -0.036440 5.000000
-0.017310 0.068150 -0.139690 -0.983100 0.181800 -0.019840 5.000000
-0.015970 0.077840 -0.139060 -0.984200 0.176000 -0.017910 5.000000
-0.015940 0.080750 -0.112750 -0.983800 0.178500 -0.018230 5.000000
-0.019900 0.048870 -0.147000 -0.983900 0.178000 -0.018210 5.000000
-0.002170 -0.293860 0.292850 -0.001989 -0.146600 0.989200 5.000000
-0.001240 -0.154340 0.313540 -0.000519 -0.206200 0.978500 5.000000
-0.005870 -0.268620 0.296600 0.000008 -0.146800 0.989200 5.000000
-0.021490 0.299060 -0.125160 0.083990 0.765300 -0.638200 4.000000
-0.019420 0.021430 0.178500 -0.660700 -0.042780 -0.749500 4.000000
-0.030360 0.211200 -0.186230 -0.609800 0.373200 -0.699200 4.000000
0.038200 -0.006250 -0.016450 0.995500 -0.093610 -0.014250 5.000000
-0.032930 -0.136670 0.285560 -0.511300 -0.079840 0.855700 5.000000
-0.056090 -0.329260 -0.242160 -0.957100 0.077400 -0.279300 5.000000
-0.031190 0.010070 -0.078000 -0.930300 0.135000 -0.341000 5.000000
-0.019560 0.013660 0.190870 -0.527600 0.089540 0.844800 4.000000
-0.039320 0.123700 0.167130 -0.998100 0.048460 0.037890 4.000000
0.010080 0.344720 -0.017580 -0.353300 0.915700 0.191700 4.000000
0.013340 0.006100 -0.335220 0.767700 -0.255600 -0.587700 5.000000
0.013100 -0.095750 -0.320600 0.952800 -0.065610 -0.296500 5.000000
0.020950 0.085580 0.178820 0.560700 -0.759600 0.329700 4.000000
0.019700 0.101860 -0.021060 -0.679200 -0.733900 0.008078 5.000000
0.020750 0.092980 -0.005310 -0.676800 0.736200 0.000555 5.000000
0.019780 0.101180 -0.028020 0.975900 -0.218200 -0.001352 5.000000
0.019160 0.106450 -0.024600 -0.679200 -0.733900 0.008078 5.000000
0.023280 0.071480 -0.046210 0.995200 0.098280 0.002632 5.000000
-0.004750 0.090360 0.216850 -0.021620 0.982700 0.183900 5.000000
-0.093330 -0.312820 -0.081500 -0.970700 0.189400 -0.147600 5.000000
-0.073190 -0.206360 -0.021700 -0.979400 0.199700 -0.028100 5.000000
-0.086270 -0.276350 -0.066240 -0.985900 0.132200 0.102200 5.000000
-0.093570 -0.314700 -0.086210 -0.970700 0.189400 -0.147600 5.000000
-0.079310 -0.242300 -0.064020 -0.952900 0.124000 0.276600 5.000000
-0.047320 -0.080630 -0.019450 -0.963100 0.196900 -0.183700 5.000000
-0.062620 -0.158750 -0.045900 -0.980500 0.196400 -0.006105 5.000000
-0.052180 -0.107410 -0.041020 -0.980900 0.194600 0.001430 5.000000
-0.055850 -0.125470 -0.042960 -0.919600 0.248100 0.304600 5.000000
-0.078700 -0.236010 -0.041510 -0.979400 0.199900 -0.030380 5.000000
-0.070570 -0.194430 -0.027050 -0.978800 0.202800 -0.028160 5.000000
-0.065730 -0.170260 -0.022280 -0.965800 0.219600 -0.137600 5.000000
-0.097050 -0.330010 -0.075910 -0.957900 0.177500 0.225400 5.000000
-0.038650 -0.012000 0.202780 -0.893000 -0.004156 0.450000 4.000000
0.023060 0.038650 0.003860 0.997200 0.074330 -0.000054 5.000000
0.014320 0.090450 0.003780 0.549600 0.835400 0.000479 5.000000
0.017630 0.071710 0.019750 0.989300 0.146100 -0.000034 5.000000
0.020670 0.054220 0.028880 0.995700 0.088390 -0.028690 5.000000
0.025930 0.022620 0.020510 0.992600 0.121300 0.000000 5.000000
0.042390 -0.121970 -0.208410 0.990500 0.137000 -0.014400 5.000000
0.012540 -0.326240 0.285730 0.864000 -0.090080 0.495400 5.000000
0.013120 -0.084460 0.323360 0.702700 -0.095260 0.705000 5.000000
0.019090 0.265930 -0.137140 -0.560300 -0.579900 0.591300 4.000000
-0.031870 0.223150 -0.177550 -0.951800 0.162400 -0.260300 4.000000
0.017910 -0.035960 -0.281380 0.997500 0.056480 0.043180 5.000000
0.013500 0.036640 -0.285310 0.984800 0.085190 -0.151300 5.000000
-0.033990 0.005500 -0.219330 -0.970800 0.034820 -0.237400 4.000000
-0.017420 0.034570 0.257440 -0.987900 0.147400 0.047630 5.000000
-0.018550 0.030170 0.248650 -0.987900 0.147700 0.046980 5.000000
-0.016800 0.044580 0.248530 -0.988200 0.145900 0.046470 5.000000
-0.016920 0.072560 0.253790 -0.992900 -0.113400 -0.035680 5.000000
-0.021750 0.020610 0.171230 -0.882200 0.421700 -0.209500 4.000000
0.048590 -0.163010 -0.203290 0.972800 0.211900 0.093300 5.000000
0.056420 -0.307420 -0.230570 0.964200 0.097640 -0.246500 5.000000
0.037060 0.102000 -0.220820 0.990900 0.001885 0.134900 4.000000
0.054260 -0.274060 -0.241660 0.954800 0.051850 -0.292800 5.000000
0.040260 -0.021290 0.159770 0.997000 0.075370 -0.016460 4.000000
-0.011250 0.091800 0.164180 -0.249800 -0.770600 -0.586400 5.000000
0.020490 0.267250 -0.179710 0.023100 0.612700 -0.790000 4.000000
-0.033610 0.009050 -0.193750 -0.814100 0.362100 0.454000 4.000000
0.009690 0.193070 -0.200420 -0.999200 -0.022350 -0.032170 4.000000
-0.017720 0.091660 0.189260 0.166100 0.942400 0.290400 4.000000
0.020440 0.034840 0.224200 0.982000 0.124700 0.142200 5.000000
0.039320 -0.016810 -0.239380 0.985500 0.042640 -0.164300 4.000000
0.017260 0.313550 -0.081480 0.954900 -0.268500 0.126900 4.000000
0.011020 0.079870 -0.221640 -0.184500 0.956200 -0.227300 5.000000
-0.009350 0.304750 0.066420 0.923800 0.320400 0.209500 4.000000
0.011830 0.156100 0.150250 -0.965000 0.035920 0.259600 4.000000
0.031330 0.239110 -0.165880 0.945000 -0.230100 0.232600 4.000000
0.066400 -0.270670 0.210570 0.923200 0.063720 0.379100 5.000000
0.030020 -0.351220 0.117760 0.000000 -1.000000 0.000000 5.000000
0.017110 -0.351220 0.129190 0.000000 -1.000000 0.000000 5.000000
-0.019410 -0.351220 0.128520 0.000000 -1.000000 0.000000 5.000000
0.025320 -0.351220 0.108090 0.000000 -1.000000 0.000000 5.000000
0.047390 -0.351220 0.122070 0.000000 -1.000000 0.000000 5.000000
-0.009720 0.107620 -0.085920 -0.021310 0.999000 -0.039200 5.000000
-0.026970 0.130450 0.167290 -0.999000 0.030110 -0.031700 4.000000
-0.045240 -0.351220 0.003080 0.000000 -1.000000 0.000000 5.000000
-0.059520 -0.351220 0.029460 0.000000 -1.000000 0.000000 5.000000
-0.086410 -0.351220 0.047670 0.000000 -1.000000 0.000000 5.000000
0.020420 -0.351220 0.027690 0.000000 -1.000000 0.000000 5.000000
-0.071630 -0.351220 0.049220 0.000000 -1.000000 0.000000 5.000000
0.029130 -0.351220 0.026150 0.000000 -1.000000 0.000000 5.000000
0.051590 -0.351220 0.028220 0.000000 -1.000000 0.000000 5.000000
0.011220 0.273420 -0.168690 -0.916800 0.233100 -0.324400 4.000000
-0.014430 0.080950 -0.251210 -0.972700 0.216100 -0.085190 5.000000
0.008360 0.082370 0.235820 0.001774 0.966500 0.256800 5.000000
0.019900 0.050560 -0.082800 0.951400 0.135500 -0.276700 5.000000
0.026410 0.004770 -0.107010 0.984800 0.173500 -0.005842 5.000000
0.026350 0.000570 -0.136560 0.983700 0.178800 -0.017400 5.000000
0.015930 0.074730 -0.092240 0.976600 0.208900 -0.051310 5.000000
-0.037880 0.089530 0.165070 -0.793500 -0.093340 -0.601300 4.000000
-0.031050 0.236520 0.103120 -0.541200 -0.526100 -0.656000 4.000000
0.014120 0.080050 0.165570 0.774400 -0.128600 0.619500 5.000000
-0.031940 0.315450 0.013270 -0.980800 -0.188800 -0.048170 4.000000
0.041390 0.002240 0.011060 0.999400 -0.024630 -0.022610 5.000000
0.089500 -0.335530 -0.122110 0.966400 0.105900 -0.234200 5.000000
-0.037630 -0.060430 0.185420 -0.879400 -0.465300 0.101100 4.000000
-0.015840 0.293820 0.100140 0.542400 0.596900 0.591200 4.000000
-0.018050 0.063360 -0.134370 -0.983700 0.178900 -0.018230 5.000000
-0.016920 0.070420 -0.144640 -0.984200 0.176000 -0.017910 5.000000
-0.040610 0.085250 0.173960 -0.976900 0.013560 -0.213400 4.000000
-0.020250 -0.012020 0.185800 -0.893000 -0.004156 0.450000 4.000000
0.018760 0.059820 -0.215920 0.077030 -0.098270 0.992200 4.000000
-0.031570 -0.006250 -0.021310 -0.876200 0.205400 0.435900 5.000000
0.012610 0.335760 0.027680 -0.811800 0.496800 0.306700 4.000000
-0.008300 0.107980 0.000160 0.007157 0.999300 -0.035810 5.000000
-0.029250 0.304100 -0.106390 -0.843900 0.455600 -0.283200 4.000000
-0.019710 0.218850 0.155550 0.239200 0.401200 0.884200 4.000000
0.017460 0.020500 -0.225930 0.060150 -0.107100 0.992400 4.000000
0.030110 -0.022730 0.211570 0.966900 0.144100 0.210500 5.000000
0.098970 -0.342360 0.046260 0.988100 -0.152400 0.022420 5.000000
0.029090 0.045000 0.063240 0.186000 0.254500 0.949000 5.000000
-0.054580 -0.334920 -0.242200 -0.957100 0.077400 -0.279300 5.000000
0.030870 0.273970 0.073600 0.998900 0.014130 0.044400 4.000000
0.005580 -0.215440 0.304480 0.060950 -0.145300 0.987500 5.000000
0.002700 -0.325330 0.288190 0.003325 -0.145000 0.989400 5.000000
0.012580 -0.172400 0.310870 0.921200 -0.038260 0.387100 5.000000
-0.091830 -0.345440 0.101360 -0.173700 -0.984600 0.021320 5.000000
0.000060 0.064640 0.288770 0.000000 0.872500 0.488600 5.000000
0.018620 0.018140 -0.333200 0.804700 -0.243800 0.541300 5.000000
0.022550 -0.140140 0.298090 0.996600 0.070050 0.044360 5.000000
-0.017860 0.230380 -0.132650 0.645200 -0.492700 0.583900 4.000000
-0.033230 -0.018440 0.156090 -0.873000 0.176100 -0.454700 4.000000
0.017570 0.182600 0.111990 -0.544500 -0.389700 -0.742800 4.000000
0.017410 0.006170 -0.241450 -0.271900 0.383100 -0.882800 4.000000
0.027440 0.189780 0.109230 0.441100 -0.351500 -0.825700 4.000000
0.032550 -0.266100 0.272520 0.920200 0.025850 0.390600 5.000000
0.081680 -0.291690 0.151440 0.964300 0.245000 0.100000 5.000000
0.055140 -0.151230 0.183150 0.945900 0.112400 0.304300 5.000000
0.039380 -0.018050 -0.219020 0.975400 0.220100 0.012990 4.000000
0.027560 0.025300 -0.076760 0.563300 0.314200 -0.764200 5.000000
0.022650 0.050240 -0.052240 0.993100 0.117200 0.000021 5.000000
0.035790 -0.013720 -0.034380 0.976300 0.211600 0.044550 5.000000
0.028630 0.021510 -0.032640 0.987800 0.156000 0.000010 5.000000
0.081720 -0.240460 -0.068610 0.979800 0.196900 0.036160 5.000000
0.035960 -0.014210 -0.022630 0.977500 0.159600 0.137700 5.000000
0.070390 -0.184240 -0.050950 0.973800 0.181200 0.137200 5.000000
0.026820 0.030880 -0.017820 0.993100 0.117200 0.000000 5.000000
0.066690 -0.166130 -0.053480 0.974000 0.158900 0.161400 5.000000
0.077480 -0.219290 -0.058080 0.981200 0.193000 -0.001229 5.000000
0.039760 -0.032970 -0.025740 0.983600 0.180100 0.006536 5.000000
0.031340 0.007270 -0.061130 0.989100 -0.147200 -0.000000 5.000000
0.017260 0.076150 -0.069800 0.644300 0.204800 -0.736800 5.000000
0.018030 0.073810 -0.025230 0.993200 0.116600 0.000000 5.000000
0.055050 -0.108820 -0.048910 0.980000 0.198900 -0.006382 5.000000
0.033830 -0.003880 -0.027370 0.887200 -0.461500 -0.000332 5.000000
0.030020 0.013470 -0.068520 0.528600 0.222500 -0.819200 5.000000
0.046320 -0.066240 -0.059120 0.979800 0.199900 -0.006471 5.000000
0.050960 -0.088640 -0.045730 0.979800 0.200000 -0.006330 5.000000
-0.029240 0.148070 -0.171410 -0.191200 -0.290900 0.937400 4.000000
0.033790 0.162650 0.151990 0.931200 0.127800 0.341400 4.000000
-0.021530 0.343750 -0.013790 0.319500 0.946200 -0.050870 4.000000
-0.025070 0.179980 0.134700 -0.143900 -0.421600 -0.895300 4.000000
-0.032850 0.297280 -0.092290 -0.999300 0.037420 0.000385 4.000000
0.018240 -0.015620 0.147690 0.748600 0.420000 -0.513100 4.000000
-0.038280 0.040640 0.033220 -0.974300 0.031410 0.222900 5.000000
0.046290 -0.099140 -0.147260 0.963800 0.142000 -0.225700 5.000000
-0.015640 0.077130 0.234590 -0.998800 0.005995 0.048860 5.000000
-0.042750 -0.036360 0.200530 -0.977400 0.210300 0.023460 4.000000
0.014620 0.106130 -0.086220 0.547500 0.834100 -0.067390 5.000000
-0.012330 0.222670 -0.150540 0.872100 -0.269600 0.408400 4.000000
-0.000620 0.096390 0.188110 -0.000006 0.978700 0.205500 5.000000
-0.098130 -0.344940 0.025160 -0.986800 -0.161700 0.005858 5.000000
-0.037110 0.096820 -0.191050 -0.856000 -0.091730 0.508700 4.000000
-0.045620 -0.062580 0.046000 -0.975300 0.149300 0.162700 5.000000
-0.016920 0.016000 0.332310 -0.968400 -0.183200 -0.169300 5.000000
0.017710 0.301830 0.040150 -0.955500 -0.255900 -0.146900 4.000000
0.075300 -0.326910 0.190580 0.942700 0.079830 0.323800 5.000000
0.059190 -0.224980 0.196460 0.904300 0.055960 0.423200 5.000000
0.050590 -0.275590 0.251740 0.937700 0.033630 0.345800 5.000000
0.022000 -0.027920 0.282560 0.992500 0.104500 0.063250 5.000000
0.016190 0.011270 0.307630 0.988600 0.106400 0.106700 5.000000
0.037690 -0.166530 0.270240 0.718900 -0.058630 0.692700 5.000000
0.018000 -0.004170 0.305310 0.990400 0.071200 0.118600 5.000000
0.014490 0.037570 0.290040 0.980900 0.111200 0.159700 5.000000
0.027000 -0.078970 0.290180 0.980300 0.137200 0.141800 5.000000
0.021680 -0.028500 0.288570 0.992500 0.104500 0.063250 5.000000
0.009220 0.102870 -0.024710 -0.679200 -0.733900 0.008078 5.000000
-0.037670 0.167670 -0.190410 -0.961900 0.115000 -0.248000 4.000000
0.003770 0.103910 -0.139760 0.000024 0.993700 -0.111800 5.000000
0.007600 0.314820 -0.020790 -0.591100 -0.791500 -0.155200 4.000000
-0.013830 0.236220 -0.169540 0.738200 0.359900 -0.570500 4.000000
0.000850 0.089520 0.205800 -0.035980 0.973100 0.227700 5.000000
0.022250 0.005440 0.169590 0.604900 -0.000924 0.796300 4.000000
-0.038510 0.108450 -0.214350 -0.986100 0.076800 -0.147400 4.000000
0.041000 -0.045180 0.082520 0.861300 0.286400 -0.419800 5.000000
0.008420 -0.338530 -0.281750 0.148200 -0.254100 -0.955700 5.000000
-0.079510 -0.229430 -0.059580 -0.933600 0.116100 0.339100 5.000000
-0.093550 -0.305570 -0.079710 -0.972000 0.190600 -0.137300 5.000000
-0.091690 -0.302470 -0.087300 -0.970000 0.191900 -0.149400 5.000000
-0.052120 -0.090570 -0.034370 -0.926500 0.211100 0.311500 5.000000
0.017240 0.033740 0.174020 0.717600 0.179100 0.673100 4.000000
0.073280 -0.308700 0.191730 0.963100 0.084680 0.255500 5.000000
0.007400 0.265370 0.075730 -0.995600 -0.079150 -0.050490 4.000000
0.014330 0.062610 0.233410 0.991700 0.109900 0.067110 5.000000
0.023540 -0.007660 0.233150 0.987900 0.147500 0.047410 5.000000
0.016680 0.045130 0.232620 0.978800 0.192800 0.069600 5.000000
0.092470 -0.298580 0.022300 0.937200 0.347700 -0.026520 5.000000
-0.032260 -0.351220 0.263780 -0.060780 -0.988800 0.136200 5.000000
0.098340 -0.341990 -0.018010 0.997900 0.030310 -0.056810 5.000000
0.033330 -0.290200 0.272990 0.812900 -0.059510 0.579300 5.000000
0.017480 -0.132670 0.306780 0.710200 -0.053880 0.701900 5.000000
0.029600 -0.284100 0.276320 0.793500 -0.071010 0.604400 5.000000
0.027820 -0.224520 0.286370 0.586300 -0.060180 0.807800 5.000000
0.016560 -0.087760 0.314080 0.838000 -0.050870 0.543300 5.000000
0.010190 -0.072600 0.320470 0.936900 -0.044080 0.346800 5.000000
0.021550 -0.141750 0.302790 0.996600 0.070050 0.044360 5.000000
0.022090 -0.230860 0.289140 0.406200 -0.133300 0.904000 5.000000
-0.013280 0.017650 -0.329130 -0.995200 -0.040620 0.089040 5.000000
-0.006570 0.081250 -0.215040 0.000040 0.978700 -0.205400 5.000000
-0.036840 0.188930 0.151190 -0.997800 0.053870 0.037840 4.000000
-0.042840 -0.058130 0.070190 -0.946900 0.201400 -0.250500 5.000000
-0.036330 -0.014650 0.080140 -0.997300 0.072940 -0.010540 5.000000
0.062880 -0.351220 0.050190 0.000000 -1.000000 0.000000 5.000000
-0.070010 -0.351220 0.055990 0.000000 -1.000000 0.000000 5.000000
0.000650 -0.351220 0.046360 0.000000 -1.000000 0.000000 5.000000
-0.027320 -0.351220 0.051650 0.000000 -1.000000 0.000000 5.000000
-0.006860 -0.351220 0.048670 0.000000 -1.000000 0.000000 5.000000
0.025330 -0.351220 0.055390 0.000000 -1.000000 0.000000 5.000000
-0.015130 -0.351220 0.057470 0.000000 -1.000000 0.000000 5.000000
0.017990 -0.351220 0.075340 0.000000 -1.000000 0.000000 5.000000
0.036550 0.130710 -0.219230 0.995500 0.073690 -0.059210 4.000000
-0.080880 -0.280020 -0.154720 -0.948400 0.185600 -0.257000 5.000000
-0.031000 -0.003660 -0.162650 -0.981400 0.176100 -0.076610 5.000000
-0.041260 -0.059130 -0.157860 -0.955900 0.164700 -0.243200 5.000000
0.058810 -0.200910 0.197810 0.892600 0.059480 0.446900 5.000000
-0.036770 0.147320 0.175680 -0.917200 0.140000 0.373000 4.000000
0.043130 -0.204320 -0.245490 0.975200 0.092020 -0.201400 5.000000
0.018300 0.020860 -0.240100 0.035880 0.082080 -0.996000 5.000000
0.017990 0.010800 -0.280130 0.941200 0.045690 -0.334800 5.000000
0.013040 0.054010 -0.284250 0.998100 0.009105 -0.061240 5.000000
0.043210 -0.207470 -0.253200 0.936700 0.072450 -0.342500 5.000000
0.022870 -0.022820 -0.248040 0.245100 0.242600 -0.938700 5.000000
0.028040 -0.068710 -0.246250 0.809400 -0.389700 -0.439400 5.000000
0.016130 0.031040 -0.269060 0.997900 0.060930 0.020990 5.000000
0.012380 0.071000 -0.249910 0.945800 -0.248200 -0.209500 5.000000
0.015570 0.033640 -0.276680 0.996000 0.064060 0.062720 5.000000
-0.033840 0.095590 -0.226370 -0.820800 0.162900 -0.547500 4.000000
0.026020 0.045340 -0.254290 0.265300 0.082290 -0.960700 4.000000
-0.002580 0.091150 0.167970 0.000000 0.984100 0.177700 5.000000
0.021540 0.185170 0.108950 0.165900 -0.455400 -0.874700 4.000000
-0.013170 -0.001650 -0.330650 -0.030450 -0.140500 -0.989600 5.000000
-0.019560 -0.081580 -0.315400 -0.983200 0.024940 -0.180600 5.000000
0.017090 0.092790 0.155420 -0.765100 0.637300 0.092190 5.000000
0.011610 0.024790 -0.330850 0.021610 0.760400 -0.649100 5.000000
0.022110 0.187200 -0.180360 -0.251300 -0.441100 0.861600 4.000000
-0.018710 -0.048770 -0.308900 -0.996700 0.049000 -0.065360 5.000000
0.011600 0.143740 -0.214380 -0.995100 -0.009099 -0.098800 4.000000
0.004090 -0.351220 -0.269460 0.000000 -1.000000 0.000000 5.000000
-0.037840 -0.174180 -0.258660 -0.754000 0.089230 -0.650800 5.000000
0.018620 0.101630 0.092990 0.857800 -0.513400 -0.022880 5.000000
-0.032620 0.075170 -0.033060 -0.989600 0.143800 0.000149 5.000000
-0.037630 0.040730 -0.047670 -0.986800 0.136500 -0.087500 5.000000
-0.031710 0.081430 -0.056700 -0.977100 0.150200 -0.150800 5.000000
-0.032950 0.072890 -0.024180 -0.821200 0.521700 -0.231300 5.000000
-0.026250 0.118910 0.034210 -0.988500 0.151200 0.000003 5.000000
-0.028230 0.105340 -0.016370 -0.989000 0.147900 0.000000 5.000000
0.017740 -0.013860 0.305860 0.987700 0.141600 -0.065680 5.000000
-0.012520 0.196840 0.137810 0.934000 -0.185800 -0.305000 4.000000
-0.029870 -0.078460 -0.236860 -0.994500 0.103200 0.017260 5.000000
0.031430 -0.025370 0.135930 0.957900 0.212300 -0.193200 4.000000
0.013300 0.055120 0.276510 0.986200 -0.115200 -0.118700 5.000000
0.014050 0.055210 0.257000 0.997200 0.074740 0.008709 5.000000
0.012600 0.071730 0.243170 0.942500 -0.282700 -0.178000 5.000000
0.018890 0.010260 0.271010 0.981800 0.057300 0.180800 5.000000
0.016170 0.105620 0.085940 0.561900 0.827100 0.014100 5.000000
0.039410 0.021980 -0.244650 0.945600 0.051470 -0.321200 4.000000
-0.041700 -0.009320 0.170560 -0.940400 0.064580 -0.333900 4.000000
0.018150 -0.031730 -0.276460 0.990100 0.129200 0.055310 5.000000
0.019820 -0.059980 -0.275400 0.851100 0.105500 -0.514300 5.000000
-0.016400 0.331690 0.043270 0.422800 0.880700 0.213500 4.000000
0.075410 -0.198410 0.016690 0.979200 0.201900 0.021320 5.000000
-0.045220 -0.024130 0.183260 -0.973700 0.055350 -0.221000 4.000000
-0.061350 -0.351220 0.000080 0.000000 -1.000000 0.000000 5.000000
-0.028570 -0.351220 -0.003560 0.000000 -1.000000 0.000000 5.000000
-0.076110 -0.351220 0.036860 0.000000 -1.000000 0.000000 5.000000
-0.071380 -0.351220 -0.008730 0.000000 -1.000000 0.000000 5.000000
-0.096170 -0.351220 0.022900 -0.986800 -0.161700 0.005858 5.000000
-0.077240 -0.351220 0.003660 0.000000 -1.000000 0.000000 5.000000
0.041180 -0.351220 0.031120 0.000000 -1.000000 0.000000 5.000000
-0.004540 0.024920 -0.335140 -0.000056 -0.127900 -0.991800 5.000000
0.016250 0.139530 -0.200380 -0.873800 -0.155800 0.460700 4.000000
0.018560 0.279670 0.058160 -0.451600 -0.603300 -0.657400 4.000000
0.033810 -0.274520 -0.268370 0.823400 0.027060 -0.566900 5.000000
-0.021350 0.296350 0.020470 0.078250 -0.979900 -0.183600 4.000000
-0.050740 -0.084910 0.083710 -0.977300 0.204100 -0.057430 5.000000
-0.020570 0.058890 0.155830 -0.736100 0.014190 -0.676700 5.000000
-0.016300 0.080170 0.157210 -0.168800 0.019570 -0.985500 5.000000
-0.013650 0.099510 0.097380 -0.970200 -0.241900 -0.015620 5.000000
-0.024880 0.041830 0.111570 -0.980400 0.196000 0.020330 5.000000
-0.018320 0.072630 0.131840 -0.980000 0.197900 0.020910 5.000000
-0.036990 -0.018730 0.110100 -0.980200 0.197300 0.018410 5.000000
-0.054950 -0.107810 0.101460 -0.980300 0.196300 0.019780 5.000000
-0.024220 0.041540 0.146600 -0.966700 0.238600 0.092800 5.000000
-0.087940 -0.271050 0.081200 -0.981200 0.157100 0.111800 5.000000
-0.076040 -0.211410 0.081230 -0.978500 0.203300 -0.034940 5.000000
-0.044570 -0.057400 0.116860 -0.980500 0.195500 0.019940 5.000000
-0.057070 -0.119150 0.108440 -0.980200 0.197100 0.020060 5.000000
-0.039430 -0.033380 0.134290 -0.852400 -0.054040 0.520100 5.000000
-0.032610 0.002530 0.116870 -0.980600 0.195300 0.019010 5.000000
-0.024960 0.042100 0.105000 -0.980400 0.196000 0.020330 5.000000
-0.044390 -0.053460 0.087390 -0.977200 0.196600 -0.080330 5.000000
0.012670 0.198970 -0.211890 -0.797500 0.243500 -0.552000 4.000000
-0.000220 0.047470 -0.319940 0.012410 0.809700 -0.586700 5.000000
0.005840 0.101420 0.065230 0.976200 -0.213000 -0.039870 5.000000
0.020540 -0.349620 0.269650 0.122700 -0.983000 0.136800 5.000000
0.038360 0.077280 -0.234350 0.997600 -0.004301 0.068730 4.000000
-0.016740 0.088590 0.173300 0.406900 0.892300 0.195600 4.000000
0.028140 0.331930 -0.063050 0.986000 0.163900 -0.031260 4.000000
-0.013660 0.026420 -0.335980 -0.454000 0.685200 -0.569600 5.000000
-0.007580 0.316300 0.023680 0.989600 -0.138800 -0.036780 4.000000
0.028950 0.009210 -0.223450 0.934000 0.059690 0.352300 4.000000
0.013590 0.037000 0.295140 0.994900 -0.100400 0.009284 5.000000
0.011890 0.058740 0.294590 0.013210 0.823500 0.567100 5.000000
0.014100 0.305320 -0.007820 -0.748000 -0.650800 -0.129800 4.000000
-0.040300 0.022430 0.058850 -0.990100 0.140000 0.013080 5.000000
-0.037030 0.044890 0.053180 -0.989000 0.148000 0.005293 5.000000
-0.035590 0.054800 0.052580 -0.989600 0.144100 0.000015 5.000000
-0.041340 0.015310 0.070110 -0.992500 0.121000 0.018940 5.000000
-0.038690 0.033450 0.048710 -0.989500 0.144600 -0.000003 5.000000
-0.036710 0.047060 0.004790 -0.995200 0.098190 -0.001523 5.000000
-0.033030 0.072370 0.020810 -0.958900 0.280500 0.041570 5.000000
-0.041000 0.017610 0.012530 -0.998100 0.061880 -0.000003 5.000000
-0.004850 0.085250 0.196080 0.015350 0.969200 0.245700 5.000000
-0.018410 0.267550 -0.152430 0.515100 0.523400 -0.678800 4.000000
0.008080 0.101030 -0.075900 0.837900 -0.535300 0.106800 5.000000
-0.026970 0.056500 0.160900 -0.294500 0.020520 -0.955400 4.000000
-0.016200 0.014260 -0.276000 -0.953100 0.078490 -0.292300 5.000000
-0.014920 0.036560 -0.280210 -0.974900 0.067390 -0.212200 5.000000
0.022910 -0.037950 -0.234080 0.996800 0.080110 -0.001975 4.000000
0.042330 -0.351220 0.184170 0.000000 -1.000000 0.000000 5.000000
0.008000 -0.351220 0.178240 0.000000 -1.000000 0.000000 5.000000
0.032060 -0.351220 0.169940 0.000000 -1.000000 0.000000 5.000000
0.071260 -0.198670 0.051620 0.971900 0.227100 -0.061860 5.000000
0.050840 -0.082200 0.036580 0.978700 0.205100 0.006691 5.000000
0.023410 0.048980 0.026730 0.996500 0.066910 -0.050020 5.000000
0.042700 -0.043250 0.032940 0.978700 0.205300 0.006664 5.000000
0.052760 -0.090590 0.012300 0.979600 0.175600 0.098030 5.000000
0.044940 -0.053960 0.032980 0.978700 0.205200 0.006675 5.000000
0.028540 0.024440 0.028260 0.992500 0.122100 -0.000111 5.000000
0.033370 0.000990 0.040720 0.999100 0.043200 -0.000000 5.000000
0.018980 0.070100 0.026550 0.993100 0.117100 0.000000 5.000000
0.068480 -0.165730 0.016850 0.978500 0.206200 0.006005 5.000000
0.024120 0.045740 0.022010 0.996500 0.066910 -0.050020 5.000000
0.062340 -0.135900 -0.000250 0.961600 0.225400 -0.156400 5.000000
0.059120 -0.121690 0.036560 0.978500 0.206300 0.006695 5.000000
0.093800 -0.286130 0.005250 0.978800 0.203200 0.024810 5.000000
0.015120 0.088740 0.019430 -0.589600 0.807600 0.004858 5.000000
0.044360 -0.051900 0.054590 0.957400 0.167900 0.234800 5.000000
0.041240 -0.035640 0.013460 0.980500 0.167100 0.103700 5.000000
0.082840 -0.234040 0.011540 0.976500 0.206900 0.060290 5.000000
0.022920 0.050760 0.043390 0.993100 0.117000 -0.000027 5.000000
0.031120 0.010970 0.064130 0.983100 0.003677 0.183300 5.000000
0.040190 -0.031250 0.032650 0.978100 0.208100 0.006667 5.000000
-0.003560 0.018350 -0.339120 0.000000 -0.135100 -0.990800 5.000000
-0.010560 -0.303210 -0.295250 -0.616500 -0.116100 -0.778800 5.000000
-0.006710 0.024400 -0.339950 -0.000056 -0.127900 -0.991800 5.000000
-0.048780 -0.079270 0.124740 -0.873300 -0.041610 0.485400 5.000000
-0.035190 -0.007190 0.085390 -0.975800 0.204600 -0.076840 5.000000
-0.056660 -0.115990 0.097420 -0.981100 0.192600 0.020750 5.000000
-0.038960 -0.030580 0.129580 -0.980500 0.195600 0.019990 5.000000
-0.017270 0.076180 0.148420 -0.951500 0.175400 -0.252600 5.000000
-0.051400 -0.088580 0.087050 -0.980500 0.195700 0.019940 5.000000
-0.025940 0.036540 0.111020 -0.980500 0.195300 0.020070 5.000000
-0.058820 -0.128070 0.109760 -0.961600 0.209600 0.176900 5.000000
-0.024550 0.046210 0.084500 -0.982300 0.184900 -0.029190 5.000000
-0.043220 -0.050350 0.114030 -0.980500 0.195500 0.019940 5.000000
-0.070100 -0.181960 0.084090 -0.980000 0.197900 0.020300 5.000000
-0.017070 0.080830 0.112850 -0.980500 0.195300 0.019990 5.000000
-0.018990 0.074010 0.085200 -0.983500 0.177000 0.038570 5.000000
-0.030990 0.011010 0.113540 -0.980300 0.196700 0.019350 5.000000
-0.041880 -0.044650 0.124300 -0.980500 0.195300 0.020020 5.000000
-0.029380 0.021680 0.088130 -0.980600 0.194900 0.021050 5.000000
-0.021690 0.055450 0.134520 -0.981000 0.193000 0.020000 5.000000
-0.037510 -0.019130 0.088660 -0.980400 0.195700 -0.020960 5.000000
0.036850 0.020090 -0.250990 0.840200 0.061760 -0.538700 4.000000
0.031450 0.224370 0.102180 0.976600 -0.083790 -0.198300 4.000000
0.044210 -0.221570 0.262240 0.767700 -0.124200 0.628600 5.000000
0.024500 -0.058650 0.296520 0.994900 0.100300 0.004726 5.000000
-0.012190 -0.351220 -0.015360 0.000000 -1.000000 0.000000 5.000000
0.067110 -0.351220 -0.002990 0.000000 -1.000000 0.000000 5.000000
-0.039240 -0.351220 -0.023940 0.000000 -1.000000 0.000000 5.000000
0.064040 -0.351220 -0.019110 0.000000 -1.000000 0.000000 5.000000
-0.021010 -0.351220 -0.030240 0.000000 -1.000000 0.000000 5.000000
0.038480 -0.351220 0.006950 0.000000 -1.000000 0.000000 5.000000
0.064140 -0.351220 -0.043020 0.000000 -1.000000 0.000000 5.000000
-0.000460 -0.351220 -0.028240 0.000000 -1.000000 0.000000 5.000000
0.088680 -0.285950 0.090550 0.941600 0.248000 0.227600 5.000000
-0.015150 0.101360 -0.066690 -0.340500 0.085220 -0.936400 5.000000
0.002720 0.112240 -0.023060 -0.071290 0.997000 -0.028560 5.000000
-0.039310 0.043410 -0.034020 -0.996600 0.075620 -0.032090 5.000000
0.024280 0.130690 0.132420 0.293900 -0.219500 -0.930300 4.000000
-0.024290 0.123360 -0.177850 0.278100 -0.236500 0.931000 4.000000
0.025120 -0.020620 0.181810 0.983400 0.170300 0.063480 4.000000
-0.012830 0.042720 -0.310740 -0.904000 -0.340500 0.258700 5.000000
-0.014350 0.097110 -0.063340 -0.757400 0.360800 -0.544200 5.000000
-0.019010 0.070110 -0.071560 -0.943000 0.252300 -0.216900 5.000000
-0.017550 0.078540 -0.069250 -0.956900 0.181200 -0.226900 5.000000
-0.024290 0.039200 -0.089130 -0.977800 0.181400 -0.104600 5.000000
-0.015120 0.093050 -0.052400 -0.340500 0.085220 -0.936400 5.000000
-0.024700 0.037950 -0.054320 -0.989600 0.144100 0.002788 5.000000
-0.014370 0.096240 -0.086380 -0.972700 -0.232200 0.003830 5.000000
0.017390 0.310110 0.003130 -0.037730 -0.965800 -0.256400 4.000000
0.019870 0.340180 -0.084270 0.190300 0.969000 -0.157500 4.000000
0.054270 -0.148730 -0.142070 0.984000 0.177900 0.013180 5.000000
0.018480 0.066320 0.043960 0.391100 0.372800 0.841500 5.000000
0.020400 0.054370 0.081270 0.980100 0.198300 0.012760 5.000000
0.018700 0.064450 0.063400 0.757000 0.350800 0.551200 5.000000
0.012690 0.097900 0.069630 0.910600 -0.409100 -0.058050 5.000000
0.023660 0.036500 0.068580 0.890600 0.325600 0.317500 5.000000
0.038410 -0.012350 -0.218260 0.947100 0.106400 0.302800 4.000000
0.037160 -0.021810 -0.076590 0.979300 0.201700 -0.019000 5.000000
0.045290 -0.061590 -0.071740 0.980500 0.196700 -0.000147 5.000000
0.013910 0.094750 -0.002510 0.982400 -0.185900 0.016490 5.000000
0.025870 0.034990 -0.034590 0.993600 0.112900 0.000000 5.000000
0.068650 -0.176530 -0.077250 0.969000 0.161100 -0.187400 5.000000
0.014380 0.090000 -0.078990 0.979400 0.201900 -0.007117 5.000000
0.038830 -0.029320 -0.054710 0.979800 0.200000 -0.006487 5.000000
0.072170 -0.193670 -0.071750 0.979300 0.202200 -0.004940 5.000000
0.046680 -0.067440 -0.041540 0.979900 0.199400 -0.006474 5.000000
0.058350 -0.125290 -0.056980 0.979500 0.201400 -0.003889 5.000000
0.031740 0.006250 -0.031250 0.999900 0.015070 -0.000037 5.000000
0.029790 0.016180 -0.020320 0.987800 0.156000 0.000000 5.000000
0.027290 0.027380 -0.053790 0.992600 0.121300 0.000000 5.000000
0.023120 0.046950 -0.081770 0.951400 0.135500 -0.276700 5.000000
0.015890 0.084050 -0.032880 0.528100 0.849200 -0.003469 5.000000
0.030740 0.011570 -0.018350 0.999900 0.015120 0.000032 5.000000
0.049400 -0.081940 -0.075580 0.980600 0.195800 -0.007362 5.000000
-0.036010 0.003850 -0.194400 -0.814100 0.362100 0.454000 4.000000
0.000850 0.095610 0.138230 -0.000143 0.993800 0.111500 5.000000
0.023790 0.172750 0.115150 0.305000 -0.392800 -0.867600 4.000000
0.060140 -0.138810 -0.034320 0.981800 0.180800 0.058440 5.000000
0.059010 -0.133060 -0.033570 0.977000 0.202200 0.067240 5.000000
0.044870 -0.069110 -0.014570 0.897800 0.380200 -0.222200 5.000000
0.022660 0.047250 -0.003940 0.998400 0.052640 -0.021370 5.000000
0.057970 -0.126240 -0.034710 0.975200 0.155000 0.158000 5.000000
0.039070 -0.041910 -0.007990 0.918100 0.195600 -0.344800 5.000000
-0.076530 -0.346660 0.193810 -0.681200 -0.721400 0.124600 5.000000
0.007680 0.340210 -0.011690 -0.788600 0.604000 0.115300 4.000000
0.023570 0.273340 0.052890 -0.158700 -0.755800 -0.635300 4.000000
-0.002120 0.103090 -0.018680 -0.679200 -0.733900 0.008078 5.000000
0.033630 0.040810 0.144210 0.821000 -0.031260 -0.570000 4.000000
-0.014780 0.062060 -0.232340 -0.919900 0.168800 -0.354000 5.000000
-0.071510 -0.334600 -0.209260 -0.891000 0.009820 -0.453900 5.000000
0.031740 0.235290 0.100100 0.982000 -0.082860 -0.169900 4.000000
0.014470 0.027550 0.292540 0.980200 0.160000 0.116500 5.000000
-0.012130 0.102710 -0.150320 -0.028880 0.993300 -0.112300 5.000000
0.030270 0.114820 -0.243850 0.190100 0.243000 -0.951200 4.000000
0.018760 0.274450 -0.144810 -0.991100 -0.104500 0.082310 4.000000
0.022980 0.041200 0.040520 0.993100 0.117000 -0.000027 5.000000
0.023430 0.036940 0.012120 0.992500 0.122100 0.000000 5.000000
0.028560 -0.080920 -0.266630 0.992700 0.114000 0.040490 5.000000
-0.037660 0.060260 -0.030160 -0.995200 0.098160 -0.001693 5.000000
0.023600 0.003110 0.153010 0.765000 0.244000 -0.596000 4.000000
-0.013000 0.274790 0.068510 0.891700 -0.399300 -0.213200 4.000000
0.026970 0.040220 0.030150 0.996800 0.062790 -0.049920 5.000000
0.026190 0.046800 -0.035960 0.993500 0.113500 0.000000 5.000000
0.021540 0.086260 0.036580 -0.670900 0.741600 -0.000756 5.000000
0.024090 0.064670 0.044130 0.993100 0.117100 0.000136 5.000000
0.026010 0.048360 0.008830 0.997200 0.074330 -0.000054 5.000000
0.026370 0.045280 0.034420 0.996600 0.070390 -0.042980 5.000000
-0.031920 0.303510 0.040910 -0.949200 -0.261000 -0.176000 4.000000
0.024530 0.051350 -0.253490 -0.289600 0.059620 -0.955300 4.000000
0.000850 0.109830 -0.045560 0.000000 0.999100 0.042880 5.000000
0.007940 -0.090510 -0.316630 -0.000109 -0.134400 -0.990900 5.000000
-0.043480 -0.039920 -0.205270 -0.993100 0.103700 0.054390 4.000000
0.066630 -0.264070 -0.190820 0.986800 0.143500 0.075510 5.000000
0.001830 -0.115890 0.319250 0.042940 -0.146600 0.988300 5.000000
0.004340 -0.051300 0.328820 -0.009258 -0.152900 0.988200 5.000000
-0.036480 -0.060060 -0.213970 -0.460700 -0.877300 -0.134300 4.000000
-0.029500 0.007140 0.206850 -0.560300 0.170500 0.810600 4.000000
